# .PCD v0.7 - Point Cloud Data file format
VERSION 0.7
FIELDS x y z rgb
SIZE 4 4 4 4
TYPE F F F U
COUNT 1 1 1 1
WIDTH 1202
HEIGHT 1
VIEWPOINT 0 0 0 1 0 0 0
POINTS 1202
DATA ascii
23.51038 -2.7071416 -1.3480945 9277045
23.702904 -2.7092805 -1.3559046 9408890
23.88163 -2.7199094 -1.3488587 9606266
24.108061 -2.7275038 -1.3716631 9803900
24.307154 -2.713335 -1.3765399 9539960
24.511717 -2.7082286 -1.3665549 9539702
24.703068 -2.7068052 -1.3511771 9737336
24.895588 -2.7024803 -1.3763384 9737593
25.038996 -2.66413 -1.3945172 9606778
27.099491 -2.6997137 -1.2317566 8290925
27.288548 -2.7052479 -1.3064435 8225388
27.492865 -2.7056792 -1.3230807 8553841
33.561428 -2.6080315 -1.2522388 8488312
33.713028 -2.7013645 -1.2532222 8159343
33.891872 -2.691705 -1.2655928 8290928
34.073513 -2.6888926 -1.3041691 8554099
38.203415 -2.6280866 -1.3966753 8618092
-3.05474 -2.5171509 -1.3232902 6778209
-2.2382927 -2.5156984 -1.2027687 5661780
-2.1104732 -2.5193121 -1.2109574 6186585
-1.8732361 -2.5177128 -1.2261277 6712163
-1.7042878 -2.5006661 -1.2368767 6056025
-1.504602 -2.5083301 -1.2496768 6712671
-1.3094167 -2.4996724 -1.2621332 6646362
-1.1062249 -2.4961669 -1.2751193 6712671
-0.90303326 -2.4926608 -1.2881052 6712927
-0.69984168 -2.4891555 -1.3010912 7041379
-0.49665007 -2.4856496 -1.3140771 7500904
-0.29296497 -2.5112302 -1.3271946 6778718
-0.089773335 -2.5077245 -1.3401804 7238500
0.093208544 -2.4978533 -1.3518518 7370088
0.29348665 -2.5069313 -1.3646945 7435622
0.49077415 -2.4977086 -1.3772835 7500899
0.69396579 -2.4942026 -1.3902695 7237471
0.83910275 -2.4916987 -1.3995452 7434849
21.760128 -2.4763408 -1.2490348 8553840
21.890568 -2.5043292 -1.3188269 8883061
22.092545 -2.498785 -1.3796763 8619632
22.310284 -2.500968 -1.3818651 8948852
22.502048 -2.5054836 -1.3863429 9277815
22.698299 -2.4955347 -1.3952181 9211508
22.862404 -2.4610839 -1.398836 9277045
23.158924 -2.5686595 -1.344419 9540730
23.307299 -2.5391665 -1.3477193 9145459
23.51408 -2.5491965 -1.3532211 9343094
23.666828 -2.5584209 -1.3573173 9540475
23.884066 -2.5449469 -1.3626738 9672317
24.123081 -2.5058334 -1.3681384 9211252
24.29331 -2.5085466 -1.3690953 9606011
24.506151 -2.5104032 -1.3780837 9474424
24.69924 -2.516042 -1.3809215 9540213
24.89472 -2.5068698 -1.3844533 9868921
25.054585 -2.4909759 -1.3918636 9474421
27.102436 -2.5119481 -1.2175918 8159597
27.293039 -2.5042188 -1.2804484 8159338
27.504713 -2.5023742 -1.3162822 8488048
27.67458 -2.4352829 -1.3215739 8882805
33.561546 -2.5728672 -1.2520895 8554360
33.714016 -2.5460179 -1.2525632 8027758
33.905594 -2.5075758 -1.2531385 8488565
34.104084 -2.4956298 -1.2975533 8422515
34.227436 -2.4722795 -1.3726773 8356466
38.203827 -2.5022459 -1.3961403 9671554
-3.0567503 -2.3986506 -1.3227549 6449755
-2.2407598 -2.3702664 -1.2021117 6121302
-2.1479709 -2.3628464 -1.2080219 6186581
-1.8466785 -2.3227344 -1.2271576 5793105
-1.6902266 -2.302578 -1.2370965 6252633
-1.4870349 -2.2990723 -1.2500825 7041382
-1.3128706 -2.2960675 -1.2612133 6910052
-1.1037748 -2.298279 -1.2745969 6778977
-0.90648729 -2.2890563 -1.2871857 6909793
-0.70280236 -2.3146365 -1.300303 6975328
-0.49921593 -2.3344002 -1.313394 6909792
-0.29641899 -2.3076255 -1.3262749 6778973
-0.093227386 -2.3041198 -1.3392608 6975837
0.10996424 -2.3006139 -1.3522468 6844764
0.31315586 -2.2971087 -1.3652327 6975839
0.48732015 -2.2941034 -1.3763635 7633000
0.6905117 -2.2905977 -1.3893499 7172191
0.83564872 -2.2880938 -1.3986257 7501156
21.725704 -2.3048987 -1.2446252 8619890
21.88765 -2.2889724 -1.301061 8553840
22.083588 -2.2944779 -1.3593963 8882546
22.308613 -2.3014112 -1.3817577 8817266
22.515285 -2.3017452 -1.3870857 9211509
22.703987 -2.3020511 -1.3919504 9211766
22.887985 -2.2989247 -1.3966334 9343096
23.018581 -2.2576225 -1.3992677 9738111
24.168871 -2.3261821 -1.3661476 9013363
24.305815 -2.3106036 -1.3693993 9408631
24.506599 -2.2971025 -1.3743314 9343092
24.682962 -2.2905517 -1.3787575 9540470
24.906172 -2.3006163 -1.3846829 9671800
25.057526 -2.2979937 -1.3885342 9868923
27.133106 -2.327621 -1.2065158 8225390
27.304911 -2.2983072 -1.2655975 8225132
27.498339 -2.2974863 -1.3193882 8553841
27.710552 -2.2958231 -1.3245661 8817268
27.895452 -2.2794862 -1.3199575 8488046
30.538465 -2.2426908 -1.364045 9474683
30.70904 -2.2904258 -1.3608969 9803904
30.916409 -2.289115 -1.3349121 9672317
31.104784 -2.2825568 -1.3298681 9606524
31.300449 -2.2849362 -1.3493255 9343351
31.440983 -2.2500253 -1.3582408 9672573
32.511593 -2.2673643 -1.3054986 9277563
32.7155 -2.3025167 -1.3085098 9080441
32.90015 -2.2907894 -1.3285072 9474940
33.100677 -2.2931521 -1.3412776 8883062
33.932392 -2.314173 -1.2524168 7961963
34.094189 -2.311306 -1.3158433 8356721
34.303482 -2.294879 -1.3647749 8093550
34.453434 -2.2262478 -1.3804902 8093549
37.979912 -2.2588141 -1.3942376 9145209
38.168404 -2.340332 -1.3953128 9013365
38.204304 -2.3584278 -1.3955284 8750449
-1.8678449 -2.1019776 -1.2250462 7237991
-1.6936806 -2.098973 -1.236177 6581599
-1.4904889 -2.0954676 -1.2491629 6647394
-1.3163248 -2.0924623 -1.2602937 7107176
-1.0841056 -2.0884562 -1.2751348 6647391
-0.90994143 -2.0854509 -1.2862657 7172967
-0.71552086 -2.1354377 -1.2988745 7041122
-0.50306475 -2.1075258 -1.3123693 7172451
-0.29987305 -2.1040206 -1.3253554 6910045
-0.096681438 -2.1005147 -1.3383412 7369827
0.11241437 -2.1027262 -1.3517245 7501155
0.30970183 -2.0935032 -1.3643131 6975326
0.50813782 -2.0949287 -1.3770118 7304036
0.69230682 -2.1111479 -1.3888487 7566951
0.83268803 -2.1135752 -1.3978373 7106654
1.8492583 -2.0573027 -1.2961 6778196
20.078659 -2.0384214 -1.209294 8816498
20.307173 -2.0661936 -1.2272495 8883315
20.477468 -2.078794 -1.2325107 8883057
20.681627 -2.0389726 -1.2252823 9145458
21.577232 -2.0034003 -1.2311687 8225131
21.71063 -2.0915148 -1.2361587 8290667
21.897154 -2.085274 -1.2610278 8356459
22.090132 -2.0978274 -1.3087291 8619887
22.312674 -2.1048753 -1.3327154 8685679
22.500582 -2.1167464 -1.3808846 9014388
22.698477 -2.1097751 -1.3748503 9079923
22.903303 -2.1035514 -1.3871853 9804421
23.076612 -2.087949 -1.392849 9672060
24.346909 -2.1724195 -1.3680193 9605751
24.542471 -2.1371856 -1.3724335 9408371
24.67201 -2.109463 -1.3752801 9539954
24.898804 -2.1157548 -1.3812312 9474678
25.044535 -2.133554 -1.3852983 9737335
27.163582 -2.1114969 -1.2060506 8159597
27.28871 -2.0948734 -1.2576952 8225390
27.487389 -2.0968618 -1.2999177 8422255
27.706917 -2.0883803 -1.2850287 8553840
27.902195 -2.0889728 -1.2961674 8685425
28.020599 -2.0118463 -1.3188182 8685683
30.50104 -2.1047773 -1.3641145 9672062
30.69816 -2.0887632 -1.3628247 9672062
30.898527 -2.0785851 -1.3615215 9606525
31.098051 -2.0919888 -1.3585058 9869954
31.309893 -2.0911417 -1.3588877 9540988
31.455475 -2.0646791 -1.357917 9672319
32.391357 -2.0563629 -1.2907209 10067078
32.512306 -2.1109066 -1.3103957 9014392
32.702393 -2.0990772 -1.297842 7239017
32.880558 -2.1017792 -1.2898577 7502188
33.093613 -2.0976126 -1.3325306 7173482
33.94276 -2.1380777 -1.2517058 8225393
34.099163 -2.1024537 -1.280574 8159343
34.30814 -2.099498 -1.3319631 8093550
34.472244 -2.0871661 -1.3764181 8356466
37.940445 -2.0862639 -1.3933494 7566955
38.043575 -2.0343049 -1.3935256 7172458
38.205372 -2.0348368 -1.3941522 6055010
-1.8417782 -1.9269584 -1.226113 7040869
-1.6892612 -1.9316007 -1.2358854 6515807
-1.4644222 -1.9204478 -1.2502298 6910052
-1.3763533 -1.9771181 -1.2560577 7633009
-0.8838746 -1.9104314 -1.2873325 7895665
-0.69380337 -1.8942212 -1.2994357 7566956
-0.50651878 -1.903921 -1.3114496 7304039
-0.30596593 -1.9004608 -1.324267 7435368
-0.12916286 -1.8974104 -1.3355665 7698283
0.13946374 -1.9000494 -1.3527594 7369573
0.315786 -1.8974314 -1.3085051 6975327
0.495938 -1.9047886 -1.2423203 7303780
0.71826768 -1.9039494 -1.3897983 7763817
0.82972747 -1.9390564 -1.3970486 7237730
1.7883636 -1.8297501 -1.2914238 8355183
1.9023994 -1.8277825 -1.2987118 7631463
19.763449 -1.8198719 -1.2262378 7764066
19.90778 -1.850281 -1.2326089 8554095
20.110601 -1.8941611 -1.2444078 8882546
20.309717 -1.9113288 -1.2779187 8750960
20.508266 -1.9024333 -1.29278 8685677
20.697092 -1.892264 -1.2799897 8948850
20.875397 -1.8719146 -1.2304674 9540473
21.577343 -1.9506613 -1.2302411 8224876
21.728054 -1.9232799 -1.2336389 8224619
21.911406 -1.8984624 -1.2379225 8487790
22.101006 -1.9051687 -1.2903066 8487790
22.307398 -1.90855 -1.3358002 8488046
22.505955 -1.9146489 -1.3708793 8619373
22.697609 -1.9132122 -1.3749329 9079924
22.896345 -1.9113566 -1.3701632 9738370
23.068684 -1.9296639 -1.3947711 9277559
23.938807 -1.8577337 -1.3519577 8948338
24.027752 -1.8164022 -1.353519 9211512
24.685108 -1.915228 -1.3721902 9540470
24.80953 -1.9065418 -1.3752409 9606266
27.149582 -1.9021646 -1.2058802 8423026
27.283209 -1.8938818 -1.2504005 8357233
27.49683 -1.8906471 -1.2638609 8488306
27.703062 -1.8947457 -1.264295 8554097
27.898506 -1.8983215 -1.2852677 8685683
28.056698 -1.8817568 -1.3184239 8948855
30.500113 -1.904056 -1.341786 9606012
30.679445 -1.902649 -1.3627139 9803905
30.901625 -1.9021344 -1.3612822 9343096
31.099216 -1.8980809 -1.3540858 9475194
31.309849 -1.8964127 -1.3545686 9606525
31.485851 -1.8976018 -1.3544554 9738368
32.391697 -1.9867986 -1.2906322 9869443
32.523327 -1.9314016 -1.3428959 9606270
32.695786 -1.9004568 -1.301196 8356723
32.879284 -1.8969646 -1.2854289 5068629
33.104488 -1.8896136 -1.3398829 5923676
34.120716 -1.902662 -1.2743111 8093551
34.303448 -1.9117982 -1.3346242 7764585
34.473396 -1.9084746 -1.3657545 8225137
37.774334 -1.9075779 -1.391946 7106921
37.898525 -1.9107101 -1.3924388 5331031
38.092766 -1.9137611 -1.3932016 5462874
38.205784 -1.908996 -1.3936172 6909284
-1.671068 -1.7203486 -1.2363243 6383451
-1.266165 -1.6260778 -1.2619019 7304038
-0.9225325 -1.7235979 -1.2842185 7369832
-0.6943785 -1.7220124 -1.298808 7238244
-0.52148503 -1.7063335 -1.3098141 6515542
-0.34346765 -1.734851 -1.3212998 6844253
-0.160164 -1.7815657 -1.3331861 6844256
0.1876711 -1.7464694 -1.3553162 7500646
0.36194253 -1.7972095 -1.2000647 6909024
0.50303388 -1.7090491 -1.2087879 6909533
0.70211238 -1.6770389 -1.221413 7369571
0.8408618 -1.6909739 -1.2303364 7369058
1.1587416 -1.697736 -1.2506943 7631976
1.7844867 -1.6012138 -1.2903919 7632485
1.8929703 -1.6922121 -1.2976433 7631973
17.969931 -1.6325357 -1.2021787 8749937
19.455847 -1.6208607 -1.2122997 7567460
19.731623 -1.6802322 -1.2391222 8291180
19.900181 -1.7001479 -1.2811184 8554352
20.101881 -1.7041595 -1.3114237 8487531
20.296272 -1.707862 -1.335181 8685679
20.495689 -1.6986663 -1.3423508 8685676
20.7017 -1.6991639 -1.3384982 8882800
20.900385 -1.7055912 -1.286518 9013873
21.097918 -1.6896435 -1.2397386 8947821
21.305998 -1.6562473 -1.2321595 9145970
21.42654 -1.6423881 -1.2047074 9014645
21.909021 -1.7065961 -1.2396878 8290411
22.105158 -1.7037005 -1.3022736 8553839
22.294495 -1.7295413 -1.3580726 8422252
22.501413 -1.7684716 -1.377319 8816497
22.73909 -1.7428924 -1.382988 9079667
22.90448 -1.7079377 -1.3823669 8882544
23.060705 -1.6834965 -1.3902221 8751214
23.959429 -1.7071024 -1.3498309 9277045
24.027924 -1.7334523 -1.3520597 9211254
24.809786 -1.7821169 -1.3730521 9145719
27.152082 -1.7056562 -1.2056195 8422771
27.285658 -1.7015234 -1.2364132 8290927
27.498501 -1.7008165 -1.2619518 8488563
27.699181 -1.7075301 -1.2606676 8554354
27.899038 -1.7042109 -1.3033779 8751475
28.100647 -1.7006255 -1.3307905 8883061
28.264435 -1.6294394 -1.3290033 9475455
30.545841 -1.729947 -1.3518926 9409403
30.693525 -1.6925254 -1.3623616 9804162
30.890026 -1.6950928 -1.3553655 9475196
31.093811 -1.7104496 -1.3251497 9869955
31.301237 -1.7082127 -1.3136181 9606526
31.473154 -1.712243 -1.3412704 9606784
32.583157 -1.786729 -1.3503075 9080695
32.705105 -1.7163762 -1.3409991 7370347
32.910812 -1.7316998 -1.334229 5660763
33.102421 -1.6982656 -1.3448801 6778727
34.157703 -1.7396649 -1.2508357 7764585
34.29715 -1.7105937 -1.2987623 7765100
34.492496 -1.7007784 -1.3144785 8093551
34.683258 -1.6516696 -1.3150048 8290930
34.847443 -1.6366957 -1.2843165 8225136
35.752747 -1.6402591 -1.3830043 7961450
35.881618 -1.631694 -1.3834652 8553585
37.711273 -1.677443 -1.3717813 7106663
37.901989 -1.7023484 -1.3860047 5265238
38.080479 -1.746787 -1.3924417 5068117
38.206318 -1.7472006 -1.392929 6646627
-1.441316 -1.5709099 -1.2505083 7040870
-1.2681386 -1.5097322 -1.2613767 6646878
-1.0939744 -1.5067272 -1.2725073 7106658
-0.94883752 -1.5042232 -1.2817831 7106914
-0.6757828 -1.5111501 -1.2992738 7304295
-0.51342684 -1.4967111 -1.30961 7304036
-0.37429282 -1.4826726 -1.3184621 6581849
0.096641496 -1.5152804 -1.3486998 7435367
0.29933965 -1.4826884 -1.3615541 8288114
0.49964142 -1.5090799 -1.2078847 6645852
0.69920474 -1.5056367 -1.2206388 6974815
0.88717043 -1.4909636 -1.2326125 7171935
1.1095409 -1.4871271 -1.246824 6974301
1.268416 -1.4386653 -1.2568207 7303782
1.7333984 -1.4714649 -1.2866782 6777946
1.9021198 -1.5056648 -1.2975885 7106400
17.919876 -1.4993671 -1.2017976 9670518
18.015327 -1.5190641 -1.2017089 9276021
19.13587 -1.412724 -1.2307098 8093803
19.30587 -1.4467397 -1.2236655 8291438
19.503986 -1.4909235 -1.233218 7962472
19.69388 -1.5015403 -1.2917013 8225644
19.904623 -1.4992465 -1.3482164 8421996
20.101448 -1.5177921 -1.3572463 8750703
20.309139 -1.5489378 -1.3717705 8488301
20.50601 -1.5619286 -1.3806992 8949108
20.699699 -1.5599424 -1.3703979 8948593
20.9161 -1.5402704 -1.3605678 9014131
21.102261 -1.5125687 -1.3244392 8882286
21.302896 -1.5087618 -1.266156 9211248
21.491579 -1.4728518 -1.2364577 9276781
21.662291 -1.464347 -1.2150111 9474162
21.897623 -1.4982886 -1.2841051 8488044
22.073 -1.5111781 -1.3475357 8554091
22.220392 -1.5103787 -1.3655283 8620654
22.795332 -1.5832075 -1.381619 8619630
22.895233 -1.5554082 -1.3837008 8619117
23.046934 -1.5836145 -1.3881049 8619373
23.767637 -1.555281 -1.3422132 9671543
23.957209 -1.5532175 -1.3470585 9408886
24.028267 -1.5675524 -1.3491411 9343351
27.313601 -1.5024445 -1.2269983 8290927
27.491756 -1.510632 -1.2649753 8554355
27.703867 -1.5075088 -1.2603889 8554354
27.90601 -1.5043502 -1.2646925 8620147
28.099842 -1.4953538 -1.3142611 8883317
28.302372 -1.5014586 -1.3316575 8948596
30.746601 -1.5314424 -1.347706 9474939
30.901495 -1.520231 -1.3288995 9738111
31.089678 -1.510875 -1.2984265 9540988
31.297848 -1.5222515 -1.3063661 9475197
31.453791 -1.5595394 -1.331089 9738369
32.754086 -1.5882933 -1.3489597 8225135
32.951618 -1.5423703 -1.3476301 9014649
33.109085 -1.5221205 -1.3465908 9014904
34.312748 -1.5532154 -1.2506387 7896172
34.504089 -1.5093026 -1.2511897 8159344
34.715622 -1.5041369 -1.251984 8093550
34.895172 -1.5192516 -1.2527412 8356721
35.064838 -1.47736 -1.2532172 8356722
35.770164 -1.5400076 -1.3542347 8027243
35.898861 -1.5247022 -1.3483371 8882808
36.081783 -1.5150687 -1.3752173 8487792
37.722687 -1.5326229 -1.3501966 6777441
37.850822 -1.5106907 -1.3905483 8422259
-1.9111819 -1.2589722 -1.2193809 6647654
-1.2853662 -1.3500073 -1.2597265 6974818
-1.0974284 -1.3031223 -1.2715878 7500646
-0.96163845 -1.3201761 -1.2803327 7434850
-0.63299042 -1.2951093 -1.30127 7501160
-0.48834693 -1.2635188 -1.3104143 7500647
-0.3992911 -1.3783621 -1.3165054 7040862
0.49624908 -1.3091106 -1.2069813 7040356
0.69581228 -1.3056675 -1.2197355 6908768
0.89537549 -1.3022244 -1.2324896 7368801
1.0948066 -1.2909904 -1.2452086 7369058
1.2810587 -1.266995 -1.2570407 6909280
1.4705794 -1.2522949 -1.2691138 7237218
1.7221375 -1.2879604 -1.2853279 6514519
1.8877805 -1.3022475 -1.2959732 6908511
2.0072279 -1.2830416 -1.3035483 7499625
17.913784 -1.2870024 -1.2010683 10065018
18.042898 -1.292117 -1.2008734 9999225
18.902971 -1.2791795 -1.2207694 7896167
19.101362 -1.288761 -1.2364104 7961961
19.300077 -1.308382 -1.2988558 7961961
19.496727 -1.3120147 -1.3389405 8158826
19.694033 -1.3402704 -1.3579568 8422254
19.894854 -1.3600321 -1.3778249 8421997
21.143406 -1.3510303 -1.3768013 9211764
21.307365 -1.3153158 -1.3492888 9145456
21.492132 -1.2968413 -1.3169008 9013613
21.697515 -1.2818167 -1.2673235 9145200
21.886311 -1.2916617 -1.2660561 8751215
22.082857 -1.2782706 -1.3286759 8488298
22.249712 -1.2372096 -1.3614634 8488810
27.307981 -1.2956709 -1.2154413 8159598
27.491858 -1.303351 -1.2541788 8290927
27.706871 -1.3061297 -1.2601182 8554099
27.913317 -1.3071369 -1.2587901 8619891
28.11046 -1.3107109 -1.273636 8883062
28.310492 -1.2919203 -1.2949344 9014647
28.479446 -1.2878318 -1.2978641 9080696
31.142445 -1.3893919 -1.2979355 10659725
34.585262 -1.380632 -1.2509542 8356981
34.65559 -1.3808632 -1.2512264 8027759
35.042397 -1.3821347 -1.2527244 8554358
35.33725 -1.2776098 -1.2534165 8290673
35.48716 -1.2589219 -1.2539153 8883068
35.86882 -1.367269 -1.2558503 8685685
37.812008 -1.3863552 -1.3898678 8816243
-1.913649 -1.1135401 -1.2187239 7238509
-1.2750468 -1.1025221 -1.2595377 5857874
-1.1008824 -1.0995172 -1.2706684 6777693
-0.98477298 -1.097514 -1.2780889 6581084
-0.63545758 -1.1496772 -1.3006134 6252628
-0.46228015 -1.0884995 -1.3114812 7500647
0.49285671 -1.1091415 -1.2060783 7106404
0.69241989 -1.1056983 -1.2188324 6383192
0.89198321 -1.1022553 -1.2315863 6908764
1.1079757 -1.1066931 -1.2454185 6646360
1.2911097 -1.0953691 -1.2570945 6844000
1.4814929 -1.1111348 -1.2693273 7697002
1.7074382 -1.0939013 -1.2837219 6908765
1.8953351 -1.1057264 -1.2957821 6974305
2.0285487 -1.0989748 -1.3042804 7237992
17.765713 -1.0027393 -1.2003226 10065786
17.901882 -1.0197692 -1.2001576 10328704
18.072088 -1.121907 -1.2002327 10131837
18.775248 -1.0271355 -1.3132567 8159341
18.897408 -1.1016219 -1.2619735 7895913
19.089231 -1.1078737 -1.2972022 7895911
19.256599 -1.1564386 -1.3530264 8027240
19.446045 -1.1715951 -1.3963058 8290927
21.356239 -1.1555523 -1.3904179 9145971
21.522936 -1.1227006 -1.3655362 9343351
21.724316 -1.0977026 -1.3028742 8882032
21.904808 -1.0998147 -1.2756553 8553582
22.097021 -1.1002423 -1.2825354 9014387
22.283859 -1.0803071 -1.3098871 8883059
22.427057 -1.0500048 -1.2053419 9342835
27.303267 -1.0770802 -1.2038635 8028013
27.493376 -1.0947282 -1.2417073 8225134
27.707878 -1.0996807 -1.2598552 8422513
27.897118 -1.1006042 -1.2586373 8751733
28.076242 -1.0590403 -1.2574317 8554353
28.302155 -1.1012992 -1.2709898 8949112
28.492414 -1.0976542 -1.3121482 9014648
28.616629 -1.040831 -1.3137709 8488047
35.394855 -1.1371404 -1.2530397 8422260
35.500523 -1.0847406 -1.2532238 8224881
-1.1043365 -0.89591235 -1.2697487 6646364
-0.98822701 -0.8939091 -1.2771692 6383450
-0.46450064 -0.95761049 -1.31089 6909276
0.50600272 -0.95016259 -1.2063736 6449493
0.70062506 -0.9169594 -1.2187093 6711900
0.88818443 -0.90257382 -1.2528679 7040353
1.0998484 -0.91578656 -1.2442434 6974818
1.7153528 -0.88802195 -1.2835217 6842718
1.8918103 -0.89796633 -1.2948436 6777182
2.0579457 -0.91068649 -1.3055149 7303273
17.546875 -0.88600868 -1.2002765 10065787
17.765717 -0.95167565 -1.2001448 9868150
18.774963 -0.89391643 -1.3235503 7895913
18.886757 -0.9003979 -1.3351738 7632998
19.050825 -0.92222947 -1.3626317 7633509
21.597349 -0.98099148 -1.3944569 9212278
21.727144 -0.90705425 -1.2391313 8553840
21.915735 -0.91008848 -1.2868339 8751474
22.098434 -0.90606797 -1.3065735 8817267
22.298536 -0.89976501 -1.2970061 8948853
22.505804 -0.88355023 -1.2721587 9408888
22.673243 -0.89375937 -1.2370911 9276789
22.92485 -0.82969844 -1.2518194 9013874
23.544445 -0.86183327 -1.388181 9409149
23.677446 -0.85665596 -1.3915144 9475196
23.875076 -0.88393772 -1.3970852 10067075
24.38525 -0.82157767 -1.3451715 9145201
24.509626 -0.83362883 -1.348587 9474166
24.633944 -0.875305 -1.3525236 9539701
27.303675 -0.94025826 -1.2036908 7830633
27.500912 -0.90774643 -1.2084388 8159342
27.705778 -0.89958626 -1.2400964 8488563
27.899841 -0.90536189 -1.2538717 8422769
28.092035 -0.89979351 -1.2571318 8619890
28.30611 -0.9099384 -1.2757132 8817268
28.501341 -0.90693343 -1.3143468 8751219
28.664177 -0.89590204 -1.3132842 9080184
36.33168 -0.86431211 -1.2554911 8750711
36.486633 -0.8813321 -1.2660328 8684917
36.650356 -0.92871094 -1.3195118 8750195
-1.8049411 -0.67524052 -1.224174 3423557
-1.6771219 -0.67885417 -1.232363 4213062
-1.5146673 -0.6702323 -1.2427254 6383198
-1.1077906 -0.69230741 -1.268829 6055253
-0.29551747 -0.64919817 -1.3206415 5726031
0.51445985 -0.7015695 -1.2060615 7500647
0.73540491 -0.69775748 -1.2201823 7040352
0.90240079 -0.70773518 -1.2308991 6580569
1.1209579 -0.6930539 -1.2448294 6580315
1.3127128 -0.68779713 -1.2570781 6909025
1.5212539 -0.65324247 -1.2702996 7105634
1.7119603 -0.68805265 -1.2826184 7105122
1.9176129 -0.70736486 -1.2958401 6776928
2.0990622 -0.71947455 -1.3074889 7105894
17.527426 -0.7984699 -1.2000036 10000507
17.795483 -0.60061795 -1.257442 9605494
17.922794 -0.64191616 -1.2573761 10329471
18.062147 -0.64364547 -1.2571527 10197375
18.756592 -0.72032708 -1.3632506 7764327
18.844042 -0.71879929 -1.3724778 7830634
19.00705 -0.78283489 -1.3996029 7831144
21.762043 -0.72197783 -1.2133175 8159083
21.896307 -0.70301706 -1.2164402 8159083
22.094334 -0.71902978 -1.2889959 8751731
22.293024 -0.71979302 -1.3013664 8883061
22.490002 -0.70798773 -1.3472209 9145718
22.682859 -0.69887727 -1.3056874 9145461
22.896141 -0.70372605 -1.2362673 9343093
23.106508 -0.64172697 -1.2351015 9606264
23.254538 -0.62980735 -1.2924047 8948337
23.528963 -0.70003527 -1.3849274 9408891
23.677839 -0.66792154 -1.3881943 9343352
24.172428 -0.60793287 -1.3359213 9343096
24.367844 -0.64379901 -1.3415865 9541244
24.477539 -0.67952645 -1.3450418 9408887
24.634167 -0.76865506 -1.3506474 9540214
25.700779 -0.62462449 -1.3755724 9277299
27.534302 -0.71701878 -1.2019273 8290928
27.69795 -0.70525652 -1.2025323 8488305
27.855185 -0.6910401 -1.2358711 8422768
28.098694 -0.68868011 -1.2568262 8619890
28.283838 -0.72274822 -1.2781172 8883060
28.507565 -0.70003968 -1.3037316 8882804
28.68281 -0.69477326 -1.3129139 9409660
36.359592 -0.76756573 -1.255186 8422003
36.489468 -0.74113959 -1.2555747 8817017
-1.8064213 -0.58798122 -1.2237797 2897724
-1.661778 -0.5563907 -1.2329242 3687234
-1.5174633 -0.50540924 -1.2419809 6251609
0.50613737 -0.51662248 -1.2048945 7106144
0.73986673 -0.54051584 -1.2199279 7040352
0.91563076 -0.50955737 -1.2310652 6711900
1.1098784 -0.49841282 -1.2434529 6580571
1.3094416 -0.49496973 -1.256207 7303015
1.4805925 -0.49773186 -1.2671649 6974048
1.7166443 -0.48386198 -1.2822174 6317401
1.9018877 -0.50453115 -1.2941382 6842720
2.07967 -0.51025623 -1.3055304 7237225
16.499363 -0.44436398 -1.2004641 9803644
16.608299 -0.45798787 -1.2003323 10197886
17.084887 -0.59418756 -1.2000217 10329475
17.733915 -0.47927913 -1.2571211 10197885
17.898714 -0.49291131 -1.256897 10263678
18.06266 -0.49133772 -1.2566216 10066555
18.744629 -0.57327306 -1.3661211 7830121
18.825678 -0.57386607 -1.3939532 7698791
21.773663 -0.51295787 -1.2099285 8028011
21.896704 -0.50964081 -1.2130387 8422769
22.08028 -0.5116201 -1.2369121 8356718
22.307043 -0.50797641 -1.2285135 8488047
22.494436 -0.49931204 -1.283578 8685681
22.713678 -0.52364069 -1.3605446 8948338
22.906803 -0.50880766 -1.3234799 9342838
23.102779 -0.51209378 -1.2593945 9474421
23.282686 -0.50180465 -1.2826828 9474422
23.49831 -0.50501329 -1.3247563 9409146
23.673187 -0.54535872 -1.3859121 8816753
24.185925 -0.53978723 -1.3670418 9474679
24.330902 -0.54032081 -1.3388091 9672060
24.469843 -0.54054546 -1.3423911 9277815
27.564878 -0.50843108 -1.201471 8356720
27.697847 -0.50720453 -1.2073065 8488305
27.920338 -0.49385476 -1.2605826 8751733
28.088606 -0.4993813 -1.2566557 8817782
28.542458 -0.48966402 -1.2902906 9014649
28.694302 -0.4906044 -1.3142847 8949110
0.49164388 -0.31721595 -1.203283 6974560
0.92141962 -0.31592426 -1.2307711 6843488
1.106486 -0.29844359 -1.2425498 6448986
1.3060493 -0.29500049 -1.2553037 6842719
1.4767803 -0.27300459 -1.2661499 6514522
1.7334424 -0.27333891 -1.2825694 6317143
1.9173725 -0.30894643 -1.2944573 6580061
2.072274 -0.31443831 -1.3043853 6580318
16.147188 -0.2567991 -1.2003913 9803642
16.300444 -0.29663709 -1.2002777 9672057
16.48562 -0.32893357 -1.2078941 9935231
16.608303 -0.38990316 -1.2000952 10066817
17.329075 -0.24885795 -1.2569857 10264191
17.50647 -0.28128961 -1.2568061 10263935
17.70948 -0.30814117 -1.2565653 10132091
17.90085 -0.30842617 -1.2602407 10132090
18.056379 -0.30850431 -1.2609822 10329726
21.791609 -0.33367369 -1.2072275 8488562
21.904943 -0.30455744 -1.2096319 8356463
22.088661 -0.29604548 -1.2366651 8356719
22.308592 -0.32818839 -1.2343425 8619891
22.445505 -0.36339957 -1.2871363 8620145
22.742304 -0.38632131 -1.3824533 9737851
22.935265 -0.36130422 -1.3504325 9672059
23.100771 -0.32835138 -1.3378888 9211507
23.304354 -0.3074941 -1.3063461 9606266
23.49159 -0.29535741 -1.2776756 9869695
23.690958 -0.27358231 -1.2500247 9672315
23.880953 -0.24193531 -1.2334145 9540216
24.062702 -0.23314266 -1.214361 9342836
24.364285 -0.25463521 -1.2142141 9606011
24.496319 -0.24908105 -1.2262472 9672060
24.674858 -0.25337398 -1.2136374 9738110
27.525227 -0.3157641 -1.2014866 8159342
27.698935 -0.30835491 -1.2187661 8488562
27.920618 -0.31966904 -1.2625012 8356718
28.084629 -0.29672557 -1.2585663 8488304
28.500538 -0.30375576 -1.2896646 8948855
28.6961 -0.29909685 -1.3103414 9080441
0.51902193 -0.12998299 -1.204392 7369578
0.90498424 -0.18761857 -1.2292795 6383960
1.1270936 -0.11234802 -1.2432293 6843232
1.3026569 -0.095031299 -1.2544005 6646108
1.5022202 -0.091588221 -1.2671547 6514778
1.7016515 -0.080354117 -1.2798736 6645851
1.895103 -0.10459272 -1.2923317 6514520
2.1013942 -0.10982598 -1.3055462 6383448
2.2849035 -0.093959689 -1.3172306 6317658
15.549223 -0.04941209 -1.2006541 9211250
15.689176 -0.069846436 -1.2004948 9474422
15.940237 -0.079224095 -1.2001139 9540215
16.11038 -0.14402801 -1.2065669 9540470
16.29565 -0.074470475 -1.2552915 9408628
16.487988 -0.086219564 -1.2578046 9671801
16.660034 -0.015602792 -1.2572753 9935230
17.107344 -0.066096984 -1.2567146 9803643
17.301365 -0.096609518 -1.2582613 10198657
17.504539 -0.10169726 -1.2595087 9869180
17.709488 -0.10169074 -1.2558467 9737592
17.907164 -0.10193454 -1.2714797 10066043
18.064703 -0.10187773 -1.2752095 10066043
21.920267 -0.11568641 -1.2066942 8028009
22.08511 -0.08874613 -1.2566957 8422512
22.25626 -0.089213081 -1.2729577 8290669
23.33596 -0.16566312 -1.3800136 9738108
23.523405 -0.14206734 -1.3647635 9277812
23.695822 -0.11144962 -1.347066 9474678
23.904078 -0.1039702 -1.3026633 9474423
24.100513 -0.10695717 -1.2662292 9474422
24.29743 -0.10772519 -1.2548575 9671802
24.508162 -0.11042126 -1.2624633 9803644
24.689514 -0.097969279 -1.2558216 9474937
24.888008 -0.081068031 -1.2370774 9474426
27.701797 -0.16654132 -1.2085307 8027499
27.90156 -0.18878773 -1.2574739 8422254
28.106649 -0.13244019 -1.256083 8356976
28.292208 -0.095166706 -1.2660619 8620147
28.48662 -0.10688086 -1.3186154 8948599
28.697676 -0.10779563 -1.3071009 8883063
37.312847 -0.088503972 -1.2559679 8487541
37.457142 -0.089194469 -1.2669472 8487284
0.50101155 0.091165543 -1.2024809 6909284
1.1712161 0.088440962 -1.245363 7172457
1.2900845 0.085729241 -1.2529761 6515295
1.5046264 0.10276594 -1.2666416 6843236
1.6986678 0.095500045 -1.2790792 6974820
1.9040438 0.092511907 -1.2922274 7500395
2.098002 0.090143204 -1.3046427 6777696
2.297565 0.093586296 -1.3173968 6581088
15.36011 0.17754894 -1.2001754 9342835
15.524976 0.076746382 -1.2002549 9145457
15.702183 0.068974033 -1.2117038 9211506
15.917393 0.1536192 -1.2579094 9277043
16.097305 0.11869515 -1.2597294 9606006
16.303753 0.105444 -1.2790502 9408629
16.495079 0.11221672 -1.2628933 9671803
16.714622 0.11728131 -1.2567228 9869438
16.900143 0.11701282 -1.2656248 9935230
17.10729 0.1059334 -1.3010699 9869178
17.302593 0.1060559 -1.3117774 9934713
17.49798 0.10365388 -1.3137758 9737336
17.705254 0.10388755 -1.2929329 9737591
17.916069 0.11066071 -1.3056215 9737335
18.088192 0.10596728 -1.3168899 10000762
21.933111 0.09680061 -1.2032757 8159340
22.079554 0.10705079 -1.2999641 8224877
23.744753 0.040310714 -1.3556634 10001792
23.931431 0.087077223 -1.3469683 9737851
24.113354 0.10063598 -1.3221836 9737851
24.302748 0.096204795 -1.3153431 9540215
24.498447 0.093739808 -1.3173021 9671799
24.691175 0.093956985 -1.2873514 9408629
24.895327 0.096866757 -1.2601008 9671804
25.083803 0.14647467 -1.2515283 9803389
25.288876 0.17308104 -1.2195377 9803645
28.169727 0.11958454 -1.255363 8488561
28.297674 0.10177033 -1.2578856 8686197
28.488121 0.10182373 -1.316684 8685427
28.704014 0.10019756 -1.2835292 9014649
28.819542 0.152395 -1.3109789 8619890
37.332756 0.025715869 -1.2555575 8948091
37.489861 0.089442655 -1.2558917 8553077
37.702538 0.19153269 -1.2562771 8487282
37.890018 0.17333402 -1.2570783 8618868
38.106724 0.14650998 -1.273658 8882552
0.49810377 0.2625677 -1.2017065 6121047
1.1828053 0.24580556 -1.245564 7369067
1.2958721 0.30490705 -1.252594 6909283
1.4897335 0.3082518 -1.2649837 6448730
1.6964524 0.22609217 -1.2784891 8092020
1.9122488 0.28125104 -1.2921044 6908771
2.0946095 0.29011238 -1.3037395 6974308
2.2941725 0.29355547 -1.3164939 6580320
15.280682 0.23996498 -1.200089 9343604
15.732251 0.3174805 -1.2576438 9474678
15.904646 0.29958898 -1.2827398 9342835
16.103456 0.29718542 -1.3129991 9606005
16.310425 0.29683679 -1.3066313 9606008
16.51367 0.29866812 -1.2776564 9869181
16.705221 0.29501686 -1.27108 9737593
16.909019 0.29888883 -1.320191 9869180
17.113615 0.30312344 -1.3740648 9803129
17.302584 0.29934174 -1.3536948 9737078
17.499907 0.2977646 -1.3248357 10000761
17.694527 0.29334238 -1.3143376 9934971
17.902576 0.29989889 -1.3413875 9869178
18.106073 0.30338192 -1.3747816 9934711
21.955824 0.26359326 -1.2249736 8356718
22.072149 0.30222815 -1.3176291 8159340
24.18717 0.26646519 -1.3971043 9409398
24.292667 0.24281779 -1.3730431 9277300
24.514948 0.27365282 -1.3697078 9803644
24.709999 0.27894947 -1.3466346 9540214
24.898867 0.30566341 -1.3403958 9540216
25.104996 0.30782619 -1.3117799 9803644
25.293839 0.3068611 -1.2546927 9803389
25.500404 0.35637236 -1.2519835 9737851
25.67399 0.33102226 -1.2072642 9474423
28.117609 0.31052193 -1.2554613 8554356
28.296532 0.30872661 -1.2642846 8817270
28.497721 0.30880091 -1.2845986 8685684
28.710947 0.30651304 -1.2582934 8949113
28.832993 0.30559742 -1.2508594 8685427
37.720234 0.22663923 -1.2561955 8553075
37.945381 0.25403088 -1.2569476 8684403
38.083775 0.27701908 -1.2573837 8553330
1.2924798 0.50487626 -1.2516909 6449500
1.4543539 0.48861882 -1.2621017 5989205
1.9393306 0.47793594 -1.293162 6448989
2.0912173 0.49008158 -1.3028364 6908771
2.2851756 0.48771286 -1.3152519 6317403
15.544246 0.55466467 -1.2571278 9408630
15.710859 0.50058371 -1.2570417 9343092
15.911436 0.49194577 -1.3145884 9474679
16.097151 0.48585984 -1.3354094 9606007
16.304052 0.49345869 -1.3312204 9539958
16.505278 0.4889698 -1.3196925 9737594
16.698574 0.49368891 -1.3152804 9737337
16.904207 0.49307001 -1.3659079 9934973
17.100958 0.49392107 -1.3757737 9935230
17.311943 0.49390757 -1.3754262 9671543
17.499916 0.48941818 -1.3241684 9803386
17.69186 0.48943773 -1.3238522 9737849
17.895664 0.4915036 -1.3472923 9803642
18.103153 0.49385709 -1.3741235 9803384
21.971075 0.53323019 -1.2590985 8422766
22.069498 0.50084287 -1.3010317 8225131
24.732044 0.42132297 -1.3466554 9277045
24.919661 0.48972407 -1.3792921 9606009
25.113571 0.47530967 -1.3495625 9803386
25.285332 0.51188177 -1.3415891 9408628
25.489664 0.50418401 -1.2992113 9540474
25.693903 0.51575583 -1.2590219 9409401
25.891844 0.54201055 -1.2349906 9606011
26.013634 0.56658983 -1.2072656 9474426
28.167208 0.48519227 -1.2549243 8422769
28.298807 0.49508035 -1.2540643 8422512
28.508263 0.51160133 -1.2578241 8751478
28.706282 0.50319582 -1.26452 8817526
28.826309 0.49829131 -1.2865682 8817012
1.2900566 0.6477114 -1.2510457 6646369
1.4031235 0.70681292 -1.2580757 6646367
1.974758 0.63094926 -1.2949028 7434860
2.0878246 0.69005078 -1.3019331 6514781
2.2703793 0.68748534 -1.3136199 7040101
15.738284 0.65270323 -1.2564671 9540471
15.905994 0.69186211 -1.2740067 9342837
16.100264 0.69456697 -1.2956194 9605750
16.309286 0.69520879 -1.3002963 9474163
16.50317 0.69671822 -1.3109061 9540214
16.695518 0.69726837 -1.314577 9540213
16.902184 0.70283896 -1.3590654 9408628
17.094374 0.70710701 -1.3750423 9277299
17.311958 0.70489544 -1.3746916 9869180
17.499125 0.69574589 -1.3330448 10001024
17.699034 0.70421022 -1.3543286 9869181
17.910139 0.69409251 -1.3660996 9803385
18.089096 0.65561527 -1.3735834 9606006
22.097235 0.69238442 -1.2750947 8159081
22.220396 0.78167772 -1.2611351 8817269
24.876598 0.61892897 -1.3892317 10001022
25.176725 0.70411134 -1.3980882 9474678
25.290871 0.7039836 -1.3720797 9606008
25.495422 0.69898605 -1.3381174 9540472
25.709179 0.70734644 -1.3106574 9738110
25.912458 0.70734978 -1.2652426 9869697
26.052349 0.73083752 -1.2437834 9342839
26.269989 0.74311066 -1.2280903 9606266
28.180676 0.60125685 -1.254693 9015161
28.328232 0.62019908 -1.2537191 8422256
28.524099 0.69549638 -1.2623379 8685941
28.706743 0.69608581 -1.3022286 8883320
28.838018 0.69934642 -1.3101792 8488303
2.1606183 0.88180923 -1.3059317 6449248
2.2799923 0.88931179 -1.3135422 6909287
15.799868 0.81025356 -1.2558169 9342325
15.891625 0.84465611 -1.2555461 9671542
16.097637 0.87111086 -1.2551147 9737594
16.299162 0.89648736 -1.2563566 9342836
16.491306 0.89811724 -1.2663406 9276786
16.695534 0.90596282 -1.3138505 9408113
16.891462 0.90559375 -1.3303996 9342579
17.086329 0.89978045 -1.3743849 9408627
17.321735 0.89960247 -1.3739978 9868921
17.503847 0.89217299 -1.3737237 10000508
17.660839 0.89457703 -1.3734568 10066815
17.940142 0.92703176 -1.3728839 9606265
18.079737 0.96858102 -1.3725094 10001278
22.121126 0.90270859 -1.2564431 8225132
22.229576 0.92386329 -1.2588626 8356460
25.3237 0.87119436 -1.364765 9277045
25.55501 0.8933754 -1.3911438 9606267
25.709599 0.91118282 -1.3559382 9607036
25.904909 0.90615273 -1.3114334 9540475
26.100721 0.90922606 -1.2668221 9869440
26.287542 0.91494292 -1.2242601 9408888
28.52776 0.89914316 -1.2609526 8554100
28.695099 0.89336735 -1.2921579 8619893
28.878086 0.91458392 -1.3000016 8422256
2.1810641 1.0774271 -1.3065681 6187098
2.2926829 1.101805 -1.3136246 5595729
2.4506881 1.1535176 -1.3235545 5398094
16.297241 1.0385684 -1.2542031 9277044
16.523787 1.0907681 -1.2536482 9408628
16.708897 1.1002986 -1.3085486 9408116
16.901386 1.1013254 -1.3400117 9473908
17.098646 1.0975806 -1.3736761 9408372
17.319973 1.096501 -1.3733152 9474421
17.494198 1.0996865 -1.3730172 9737335
17.649748 1.0963116 -1.3727729 10000251
17.969557 1.0178186 -1.3725194 10001022
18.103184 1.0213263 -1.372287 9869693
22.132187 1.0958462 -1.2533202 8291182
22.231184 1.0863755 -1.2560365 8159083
25.523134 1.0678968 -1.3985788 9935747
25.668344 1.085968 -1.3655108 9869695
25.906754 1.0923541 -1.3415856 9737854
26.094542 1.0878005 -1.3273422 9803904
26.30657 1.0979357 -1.2651261 9738110
26.521355 1.1600574 -1.2522657 9738109
26.696848 1.1518612 -1.2122722 9606268
28.519215 1.0932416 -1.2519004 8290928
28.699219 1.0976568 -1.2507355 8619892
28.8866 1.0987188 -1.259501 8488306
29.032629 1.1121366 -1.2859713 8422255
2.1916838 1.2919259 -1.3065116 6909283
2.3057199 1.2938932 -1.3137996 6252377
2.4314506 1.2789173 -1.321894 6317661
16.579826 1.2919213 -1.2528557 9211251
16.706961 1.3025676 -1.2860501 9211508
16.904833 1.2889227 -1.3138711 9540470
17.116505 1.3015394 -1.350003 9408630
17.314207 1.2968005 -1.3654326 9408629
17.500921 1.3002 -1.3621153 9474678
17.686018 1.3034732 -1.3540046 9606007
17.907207 1.3365765 -1.366416 9935485
18.088722 1.3388432 -1.3712057 10001023
22.168097 1.2723535 -1.2511305 8685940
22.239235 1.2971236 -1.2525254 8488048
25.600424 1.2653413 -1.381163 9869950
25.936504 1.2807114 -1.3856418 9935231
26.112001 1.2805153 -1.345654 9935231
26.309761 1.2850572 -1.3075227 9737596
26.505278 1.2917421 -1.2560595 9737852
26.679716 1.3109913 -1.216332 9540729
26.992058 1.3564355 -1.2282994 9606528
27.071072 1.3766001 -1.2103162 9672320
28.486546 1.2328897 -1.251937 8356719
28.703905 1.275414 -1.250484 8751991
28.889153 1.3035494 -1.2509181 8290927
29.058548 1.3090094 -1.2830658 8817270
2.189261 1.4347609 -1.3058662 6383706
2.3023276 1.4938626 -1.3128964 6383707
2.4846883 1.5027239 -1.3245313 6646369
2.9145446 1.5472882 -1.351876 5923414
3.0996113 1.5647689 -1.3636551 6186074
15.287088 1.5446261 -1.2009606 9802101
16.591301 1.4467583 -1.2522976 9277043
16.712421 1.4956105 -1.2519282 9606264
16.910318 1.4909576 -1.3060197 9145713
17.112959 1.497237 -1.3111042 9277299
17.317112 1.4965988 -1.3447462 9342579
17.494684 1.4896116 -1.3471965 9408371
17.689034 1.4907548 -1.3509495 9671286
17.906702 1.4944729 -1.3648477 9934971
18.093164 1.4860023 -1.3706861 9935228
22.170221 1.5186156 -1.24684 8553841
22.259443 1.5202667 -1.2491086 8619891
24.524208 1.5143702 -1.2449865 9474940
24.62886 1.5497998 -1.2470562 9277561
24.853878 1.5687737 -1.252516 9408891
25.328465 1.5767961 -1.2645955 9672063
25.948364 1.4086984 -1.3830646 9606523
26.112156 1.4005151 -1.3457372 10000769
26.319653 1.4911128 -1.3662508 9671802
26.499895 1.4954468 -1.2952931 9803903
26.71209 1.5115139 -1.2783637 9672318
26.915382 1.5302342 -1.2695376 9606269
27.073595 1.5439538 -1.2935373 10001283
27.263721 1.5170207 -1.3154854 9606525
28.888653 1.5076658 -1.250715 8356977
29.092396 1.4962451 -1.2881886 8488820
29.222637 1.5034864 -1.3067013 8685684
33.156303 1.574614 -1.3424332 10263944
33.208961 1.5567745 -1.3421161 9145206
2.3206801 1.6727753 -1.3134563 6318172
2.4994676 1.6401408 -1.3250055 6251606
2.6690681 1.728793 -1.3355503 6186331
2.8691158 1.703669 -1.3484335 5989208
3.0986419 1.6219029 -1.3633966 5792084
3.2579315 1.7580031 -1.3731192 6448733
15.326442 1.7680683 -1.2025876 10065788
15.465934 1.722134 -1.2010095 10329215
16.797762 1.6015829 -1.2514186 9474419
16.900993 1.6875974 -1.2509491 9474421
17.102406 1.6971797 -1.2821671 9343093
17.320768 1.7059256 -1.3471005 9474166
17.498793 1.6947458 -1.3632934 9802616
17.697193 1.7000362 -1.3406943 9605235
17.90484 1.6925255 -1.3320541 9802614
18.095116 1.6891674 -1.3577439 9934714
22.172461 1.6633976 -1.244343 8553842
22.279861 1.7092698 -1.2462994 8751733
22.400175 1.7767898 -1.2482061 8422768
22.742201 1.7362428 -1.2577291 8619889
22.867943 1.6960332 -1.2554219 8949110
23.377729 1.7653807 -1.2423075 9277560
23.468849 1.7647039 -1.2238172 9145718
24.132439 1.7745397 -1.2381256 9277558
24.319935 1.7542243 -1.2354943 9672574
24.50765 1.7036932 -1.2412195 9738110
24.694942 1.7050148 -1.246019 9409402
24.875982 1.7097484 -1.2662342 9672573
25.13699 1.746971 -1.3192081 9343095
25.295633 1.7088439 -1.2886142 9737854
25.528814 1.7517972 -1.306469 9738110
25.653643 1.7468348 -1.2908176 9474681
25.847914 1.7712142 -1.3370876 9409144
26.077299 1.7317426 -1.2889631 9409145
26.305437 1.7092067 -1.3455176 9540733
26.512991 1.7063549 -1.3411483 9738110
26.712259 1.7009964 -1.3196737 9475195
26.909424 1.6891468 -1.2889704 9672317
27.094223 1.6903042 -1.2879281 9606267
27.276987 1.6831801 -1.3128949 9803647
27.433033 1.7046607 -1.3790805 9540731
28.903463 1.6964929 -1.261973 8488563
29.09185 1.6972194 -1.2936245 8554099
29.23349 1.7090037 -1.3500596 8554098
33.132725 1.6971457 -1.3179696 9277050
33.209476 1.6622677 -1.3419814 9474172
2.3535299 1.8376505 -1.314992 6581347
2.4772251 1.9426562 -1.3225445 7106922
2.6801722 1.9147246 -1.3356225 6055769
2.8657231 1.9036382 -1.34753 6252380
3.1546745 1.9891118 -1.2049904 5594961
3.293359 1.9110161 -1.3748606 6054741
3.4542639 1.951893 -1.3850132 6580828
14.985945 1.9437203 -1.2069967 10197886
15.139681 1.9312131 -1.2055914 10329472
15.300077 1.9305489 -1.2042341 10263679
15.469356 1.9118201 -1.2026434 10329215
16.91247 1.8366996 -1.2504112 9802872
17.106462 1.8884889 -1.2614938 9342836
17.304281 1.8972222 -1.3093966 9277302
17.505575 1.893857 -1.3276097 9408114
17.701271 1.8944663 -1.3107256 9539440
17.904604 1.9031606 -1.3255115 9473649
18.103235 1.900442 -1.3692267 9407858
22.186987 1.8126847 -1.2420831 8093545
22.318651 1.8853493 -1.2441914 8488305
22.481867 1.9142714 -1.247884 8619891
22.704138 1.8861804 -1.2541032 8685425
22.880354 1.9385281 -1.2577173 9014135
23.106981 1.9556192 -1.2632518 9212025
23.320967 1.9234902 -1.2562985 9277817
23.465368 1.8938258 -1.2527221 9475196
24.112762 1.9134425 -1.2813668 9606781
24.306635 1.9061066 -1.2883165 9409402
24.503977 1.8903108 -1.2646377 9738112
24.691874 1.9017918 -1.261232 9672317
24.89382 1.8798456 -1.3016667 9737854
25.11503 1.8701622 -1.3164691 9606268
25.291605 1.8492924 -1.318257 9869696
25.502747 1.8532715 -1.3204968 10001282
25.678232 1.8386388 -1.3315284 9606267
25.895428 1.8303876 -1.3372672 9606523
26.096619 1.8180012 -1.3158609 9672572
26.301744 1.8198563 -1.3121754 9474940
26.496695 1.8172863 -1.329847 9672318
26.696024 1.8906386 -1.3706925 9409144
26.903851 1.8742421 -1.3369333 9672061
27.098486 1.8776516 -1.3013407 9803647
27.269737 1.8044651 -1.3731146 9737853
28.889164 1.8938618 -1.2651441 8356722
29.091227 1.9030429 -1.2937522 8554613
29.280991 1.9037601 -1.3400037 8620406
33.156265 1.8942982 -1.3420355 9671810
33.210678 1.9084183 -1.3416677 9671809
2.4948783 2.0634966 -1.3232589 6515298
2.7058945 2.0794768 -1.3367027 6186843
2.8549473 2.0585759 -1.3463093 6252636
3.109688 2.1158395 -1.2705625 6186587
3.2964847 2.0960062 -1.3074547 6515040
3.4571557 2.1016233 -1.3846843 5923925
13.952026 2.1573176 -1.2175814 10263938
14.085403 2.1410465 -1.2163149 9869436
14.490863 2.1700242 -1.2131523 10263938
14.768661 2.1597364 -1.2107211 10197885
14.90337 2.1255209 -1.2092859 10329471
15.11856 2.1159344 -1.2094681 10395263
15.304002 2.1070881 -1.2073996 10197627
15.472651 2.1020603 -1.2096304 10197883
17.148132 2.0738938 -1.2491975 9343093
17.30405 2.093523 -1.2718883 9606008
17.501442 2.0894954 -1.3031226 9408372
17.704292 2.0885 -1.3080721 9408371
17.910677 2.099148 -1.3362353 9473649
18.099657 2.1076007 -1.3664025 9540212
22.471926 2.0966244 -1.2444103 8751476
22.77664 2.1215248 -1.2518177 9146234
22.895088 2.1077902 -1.2551104 8883061
23.085371 2.0890491 -1.2603409 9014647
23.279793 2.0525911 -1.2611796 9014647
23.44923 2.0239439 -1.2708595 9804676
23.898052 2.0632119 -1.2817243 9540732
24.044653 2.0540872 -1.2856604 9540731
27.095345 2.0963116 -1.3726819 9869438
27.220947 2.0977988 -1.3495296 9342837
28.899044 2.0916018 -1.2519516 7962221
29.098316 2.1000657 -1.2708542 8356977
29.300003 2.0936482 -1.3109037 8422770
29.447502 2.1242321 -1.3044807 8290929
29.768639 2.1999605 -1.3023176 8949117
29.894283 2.1779425 -1.301536 8619892
30.05127 2.1754661 -1.3081725 8620147
33.148632 2.0952268 -1.3234875 9342330
33.21162 2.1018226 -1.3414207 8947572
2.4027941 2.2957067 -1.3165717 6121050
2.6888537 2.2434912 -1.3350496 5989720
3.1223805 2.2412212 -1.2020597 6975080
3.2894816 2.3002522 -1.2125463 6317659
3.5071306 2.300657 -1.3725864 6646626
3.623368 2.2939053 -1.3946569 6843747
13.742646 2.3300247 -1.2208596 9540470
13.901543 2.3262098 -1.2194871 9671800
14.095228 2.3209543 -1.2178091 9737593
14.318176 2.332999 -1.216036 10132351
14.503402 2.3169696 -1.2143347 10198402
14.71043 2.3173361 -1.2125933 10330243
14.892686 2.2974193 -1.2171212 10198400
15.088636 2.3117239 -1.2455795 10132351
15.306232 2.30635 -1.2532786 10066042
15.49901 2.3061149 -1.2619947 10263420
17.321871 2.250015 -1.2482982 9474933
17.512251 2.3045509 -1.2646735 9540471
17.710514 2.2884982 -1.3073658 9409141
17.905104 2.3025529 -1.3441271 9606006
18.085676 2.3048365 -1.3678474 9408368
22.792076 2.2205322 -1.2504683 8948600
22.922403 2.2203214 -1.253828 8619888
23.040865 2.2112422 -1.2570388 8685682
27.092787 2.2156911 -1.3788472 9935489
27.221107 2.2224741 -1.3496162 9869440
28.927942 2.2911301 -1.2477771 8159601
29.097855 2.2980585 -1.2499087 8422773
29.306377 2.2916439 -1.2760273 8422772
29.506596 2.2914152 -1.3056393 8554358
29.697117 2.2902656 -1.3026661 8356978
29.890881 2.3037124 -1.3014013 8554357
30.102308 2.3047147 -1.321061 8685943
30.270733 2.3506081 -1.3600537 9014650
33.14801 2.2779591 -1.3416114 9671552
33.212475 2.2776449 -1.3411965 9342587
2.3998866 2.4671087 -1.3157978 5727060
2.4008555 2.4099748 -1.3160553 5529936
3.3141575 2.4971962 -1.2134495 5660752
3.5252459 2.5077186 -1.3072814 5923926
3.6780097 2.4992263 -1.3744863 6317916
13.134301 2.5326602 -1.2277622 9342836
13.284265 2.5442154 -1.2266001 9277299
13.531326 2.5403721 -1.2244842 9671542
13.701026 2.506562 -1.2227579 9540214
13.902764 2.5068974 -1.2309687 9605752
14.098504 2.5011735 -1.2193612 10000767
14.294938 2.5045686 -1.2267913 10001024
14.499291 2.5011954 -1.2372804 9935228
14.702102 2.507081 -1.2517567 10066813
14.899169 2.5101438 -1.2688378 10066301
15.091473 2.5008168 -1.2707193 9605751
15.296936 2.5037701 -1.267023 9671798
15.486995 2.5010998 -1.2765472 10066298
17.513515 2.5133595 -1.2470658 9277557
17.716045 2.5045264 -1.295022 9013616
17.915314 2.5020349 -1.3251022 9408628
18.096527 2.4986963 -1.3573699 9868919
28.956724 2.4973376 -1.2473352 8291187
29.110899 2.496094 -1.2463436 8225392
29.30595 2.4994481 -1.2515528 8159599
29.507013 2.4967957 -1.2894603 8356979
29.704605 2.4986081 -1.2842245 8751737
29.890656 2.4946113 -1.2930785 8356721
30.096216 2.4935806 -1.3165218 8620149
30.30872 2.4957139 -1.3490841 8554099
30.466007 2.5623209 -1.3585327 9014651
30.66818 2.5736492 -1.3368305 9343615
31.156771 2.5689976 -1.354075 9277565
31.33749 2.5349376 -1.337664 9014393
31.441458 2.5394762 -1.352278 8487537
32.704144 2.596612 -1.3440738 9605761
33.151794 2.4537668 -1.3413682 9277050
33.213417 2.4710488 -1.3409497 9277050
3.3298149 2.6752689 -1.2138395 5923668
3.506887 2.6970401 -1.2250919 5792339
3.6749401 2.6999395 -1.2358322 6843492
13.103303 2.7203014 -1.2296681 9803641
13.303002 2.7143507 -1.2279334 9342835
13.500278 2.7043138 -1.2278842 9605750
13.706117 2.7023454 -1.2487606 9671799
13.907392 2.7020926 -1.2560689 9803387
14.094816 2.7101302 -1.2665719 10066559
14.284946 2.7030547 -1.2757046 9869179
14.487024 2.6958687 -1.2793145 9934715
14.70131 2.7009351 -1.2989358 9934713
14.89242 2.6949391 -1.2917511 9803127
15.085408 2.7064223 -1.3045787 10264189
15.296502 2.7045729 -1.303408 9868664
15.509369 2.7013321 -1.3104236 10132091
17.496466 2.6996145 -1.2464455 9343092
17.710314 2.7005334 -1.2990267 9540215
17.91411 2.6981921 -1.3076425 9540214
18.115908 2.7066052 -1.3531042 9606005
29.157148 2.6897049 -1.2458047 8159600
29.309284 2.7101784 -1.2480341 8159601
29.512291 2.7073467 -1.2833902 8290930
29.701418 2.7155995 -1.2821617 8225394
29.891441 2.7085586 -1.2867208 8685687
30.103569 2.7015526 -1.3276358 8685688
30.29586 2.6962769 -1.3594619 8883065
30.489904 2.6946375 -1.3499496 8751479
30.700073 2.6986303 -1.3550564 9080188
30.845507 2.7375512 -1.3558702 8487793
31.14875 2.7272804 -1.3539296 8948087
31.306738 2.7102945 -1.3508242 8948344
31.498478 2.6939249 -1.3517183 9079673
32.370262 2.6334066 -1.3461785 9803140
32.520527 2.7067053 -1.3451196 9276796
32.665596 2.7042494 -1.3441882 9671811
33.21479 2.7523639 -1.340591 9408637
3.5204544 2.8881779 -1.2253044 5988949
3.683475 2.9046266 -1.2356762 6186586
3.8111756 2.9268825 -1.2437687 6450272
12.949757 2.9543219 -1.2330135 9868923
13.10087 2.9067316 -1.231323 9540214
13.301003 2.9024465 -1.2392238 9343092
13.508366 2.9083672 -1.2687361 9672057
13.710409 2.9010453 -1.2822815 9539956
13.91619 2.9004393 -1.2990772 9868923
14.10547 2.9070513 -1.3098799 9934971
14.304368 2.9069955 -1.3239163 9868922
14.511955 2.9076402 -1.3329237 10132352
14.713709 2.9007993 -1.3311634 9671543
14.900441 2.9037843 -1.3296164 9934713
15.085872 2.8916297 -1.3298367 10066555
15.281988 2.8878939 -1.3262621 9803386
15.505671 2.8872957 -1.3243721 9934969
17.514091 2.8854628 -1.2568513 9342579
17.704557 2.8843625 -1.2984618 9474678
17.913734 2.8880069 -1.3139377 9540470
18.111307 2.8933299 -1.3589616 9935229
29.310152 2.9011469 -1.2445563 7962222
29.512838 2.9000521 -1.2871363 8027758
29.700249 2.9030333 -1.2696607 8488565
29.897795 2.9165034 -1.2933406 8422516
30.103048 2.9103236 -1.3196658 8356721
30.294321 2.9070804 -1.3513181 8554358
30.490032 2.910938 -1.3496796 8685431
30.696529 2.9066589 -1.3469627 8685174
30.898245 2.9074979 -1.3395926 8487794
31.09775 2.9211648 -1.3480986 9014137
31.295269 2.9076149 -1.3398865 8882552
31.495865 2.9031141 -1.3514752 8882295
31.673626 2.968364 -1.3502489 9211260
31.826851 2.9701278 -1.3492597 8882297
32.37146 2.8795571 -1.3458645 9671554
