# .PCD v0.7 - Point Cloud Data file format
VERSION 0.7
FIELDS x y z rgb
SIZE 4 4 4 4
TYPE F F F U
COUNT 1 1 1 1
WIDTH 1162
HEIGHT 1
VIEWPOINT 0 0 0 1 0 0 0
POINTS 1162
DATA ascii
32.03315 -2.2572267 -0.36640823 7172964
42.342499 -2.3831191 -0.21309018 8355953
42.445911 -2.358834 -0.2133562 8684919
7.1344709 -2.0902994 -0.21363154 5397583
7.2054396 -2.059675 -0.21400118 4016191
10.90433 -2.0990298 -0.22441798 9868922
11.097305 -2.1014266 -0.24771845 10001021
11.313762 -2.0952597 -0.27041826 9869435
11.50211 -2.0987446 -0.29806736 9671798
11.691252 -2.1064408 -0.31661159 9737335
11.889884 -2.1127629 -0.32707813 9671286
12.097219 -2.1056011 -0.33242565 9737335
12.300155 -2.1031859 -0.34267598 9737594
12.492374 -2.1011136 -0.36648038 9737594
12.660574 -2.0996621 -0.37577125 9803387
12.930719 -2.1075602 -0.33389118 9276278
13.113602 -2.0983815 -0.34909478 9670776
13.291515 -2.0847201 -0.38004443 8420457
25.587744 -2.1091504 -0.26183695 7501930
25.707685 -2.1061895 -0.29424626 7238499
25.822588 -2.0892808 -0.36649054 7435620
31.567312 -2.1119916 -0.21686676 6843746
31.692509 -2.0997372 -0.24135868 6844002
31.889376 -2.1020045 -0.30677193 6712414
32.063408 -2.0902834 -0.36220136 7041123
10.778893 -1.8867769 -0.26201653 9277302
10.898027 -1.9081074 -0.24909046 9803644
11.100635 -1.8932927 -0.26945406 9803386
11.305543 -1.8991028 -0.28387243 10000764
11.504645 -1.894838 -0.31117147 9408114
11.695377 -1.9066532 -0.33831421 9408112
11.895282 -1.8983133 -0.34154105 9737077
12.098465 -1.8998713 -0.35183686 9802355
12.298401 -1.9005058 -0.36876744 9539957
12.479032 -1.9041367 -0.37667131 9671544
12.634131 -1.9433672 -0.37617213 10199172
12.946576 -1.8996418 -0.3286719 8947303
13.108512 -1.8990049 -0.35378188 9473135
13.295434 -1.8982974 -0.3927393 8749932
13.406925 -1.9308581 -0.39967179 8684140
25.587626 -1.9073488 -0.26195568 7501671
25.712425 -1.9016914 -0.29116952 7304549
25.831451 -1.8967533 -0.37538442 7370342
31.543842 -1.990306 -0.20816278 6777955
31.695238 -1.9014453 -0.22510315 6712416
31.884083 -1.9041291 -0.27980047 6777953
32.060482 -1.8971236 -0.3517693 6843746
10.771618 -1.6757697 -0.283784 9473649
10.894217 -1.6971017 -0.27150932 9605489
11.093138 -1.6993917 -0.28973901 9276530
11.311163 -1.6973289 -0.30439052 9934716
11.500436 -1.7026362 -0.32734445 9342325
11.693339 -1.7029041 -0.34906042 9276530
11.892392 -1.7002524 -0.36472631 9144430
12.089539 -1.6991869 -0.37814951 9934198
12.275546 -1.7320119 -0.37758076 9474163
12.442189 -1.7670461 -0.37705955 9408117
12.933982 -1.6958857 -0.34369585 8948331
13.099927 -1.7037829 -0.36648718 9080172
13.251157 -1.7318071 -0.39535773 9014379
25.587509 -1.7055471 -0.26207432 6909535
25.716686 -1.6980085 -0.26152691 7304551
25.879053 -1.6884433 -0.35557681 7370341
31.713617 -1.7072349 -0.21445981 6581087
31.895306 -1.6994891 -0.25212902 6383451
32.084152 -1.7024407 -0.34242937 6646879
32.215637 -1.6191685 -0.37875986 6186326
10.770236 -1.4963125 -0.30191857 9999476
10.914648 -1.5005326 -0.29476249 9737074
11.107079 -1.4965429 -0.30101374 9737074
11.300857 -1.5034345 -0.32106131 9407858
11.500318 -1.5002649 -0.34964442 9934719
11.689349 -1.5042876 -0.3700729 9408116
11.882797 -1.4972297 -0.37913069 9210223
12.099497 -1.5303047 -0.37847912 9605492
12.237556 -1.5811925 -0.37800121 9934455
12.925723 -1.4941297 -0.35764116 8817002
13.075299 -1.5103196 -0.38350046 8751207
13.234673 -1.5272065 -0.39350483 8883049
25.587439 -1.5902318 -0.26214218 6975584
25.70665 -1.4983819 -0.26111975 7304550
25.900475 -1.4956515 -0.34651929 7370341
26.027775 -1.5007594 -0.39321923 7502184
31.736895 -1.5347515 -0.20980832 6383709
31.897469 -1.501039 -0.21613044 6712418
32.088131 -1.4991461 -0.31109813 6384222
32.242725 -1.473477 -0.37929022 6646368
10.763245 -1.3019152 -0.30991817 8879714
10.903907 -1.3006506 -0.31444168 8420451
11.109394 -1.302457 -0.31595311 8947818
11.301879 -1.3067929 -0.34787142 8881259
11.490593 -1.3026386 -0.37821457 9670777
11.695604 -1.3058231 -0.38003719 10131842
11.867547 -1.3237976 -0.37953758 9868408
12.918007 -1.3034353 -0.37630323 8948333
13.081733 -1.3196143 -0.38917655 8881513
13.232705 -1.3165734 -0.39186692 9079662
25.704058 -1.2995621 -0.25986776 7172964
25.907681 -1.3021593 -0.34083447 7370085
26.01173 -1.274412 -0.36218056 7501927
31.913973 -1.3405107 -0.21366763 6515040
32.09848 -1.3000737 -0.27662113 6449503
32.281185 -1.2893982 -0.36582834 6449503
10.747348 -1.10927 -0.32740101 9603179
10.897357 -1.1108856 -0.33290932 8879975
11.107698 -1.1012546 -0.35074961 8354917
11.275877 -1.1059434 -0.37639925 8618857
11.483594 -1.1140121 -0.38101113 9144178
11.669286 -1.1465199 -0.38044396 9868926
12.916069 -1.1030592 -0.37866682 9079410
13.042869 -1.097888 -0.38679105 9079409
13.213111 -1.1073737 -0.3899231 9341808
25.714094 -1.0995545 -0.25341043 7041121
25.903715 -1.0986087 -0.3205131 7436137
26.005259 -1.0906893 -0.34981987 7501417
31.943436 -1.1615433 -0.21115129 6121050
32.103298 -1.1075476 -0.22713576 6317916
32.294994 -1.0972182 -0.32507348 6515039
32.485626 -1.0788559 -0.37881643 6909800
32.630161 -1.0337831 -0.38085639 6909288
10.752067 -0.89963138 -0.33802575 9800556
10.896832 -0.89996487 -0.35809043 9077349
11.090261 -0.90699232 -0.37131411 8487527
11.253899 -0.90433186 -0.38207027 7829342
12.910643 -0.90479398 -0.38294551 9408891
13.030863 -0.95067835 -0.38545531 9343611
13.214783 -0.93441361 -0.38863724 9474681
25.739052 -0.89480054 -0.23243243 7107428
25.897469 -0.90096217 -0.32379779 7107171
26.014048 -0.88540727 -0.36739677 7304807
32.141323 -0.93575788 -0.21944365 6186587
32.29771 -0.90514517 -0.26973811 6186588
32.495312 -0.89759374 -0.34385252 6449504
32.675224 -0.89893091 -0.37699553 6449246
32.807835 -0.81888217 -0.38162327 6711904
10.727287 -0.69150168 -0.36515024 8947296
10.888946 -0.69320017 -0.37482643 8618594
11.08164 -0.70587111 -0.38295153 8882534
11.264129 -0.71559471 -0.38244107 8946534
12.876707 -0.72073603 -0.38093522 9145457
25.742767 -0.69092846 -0.23155077 6909793
25.898191 -0.70274502 -0.3289021 7107426
26.04254 -0.69694853 -0.38611674 7106914
32.321194 -0.7104277 -0.22359833 6120795
32.497978 -0.70116121 -0.27971172 6384224
32.70528 -0.68979716 -0.33142146 6449246
32.878357 -0.68204963 -0.37217474 6581344
33.015141 -0.61137396 -0.3823595 6844771
10.730573 -0.49376526 -0.37740636 8553310
10.895452 -0.49456429 -0.38389727 8882535
11.076366 -0.54706854 -0.38330078 7893596
12.260022 -0.42712975 -0.23063643 9604215
12.505102 -0.46265489 -0.22985148 9933954
12.858679 -0.4985781 -0.37892097 9409143
25.753412 -0.50608534 -0.23684688 6910048
25.897457 -0.50262707 -0.32013845 7173220
26.068863 -0.49612221 -0.38241485 7239013
32.352661 -0.5565837 -0.21331985 6317660
32.504864 -0.50944489 -0.22944494 6121050
32.699203 -0.4997403 -0.28407311 6844005
32.905304 -0.49810714 -0.3413116 6581344
33.030701 -0.45550841 -0.37289131 6581343
10.72416 -0.29444769 -0.38477951 8619623
10.883044 -0.29594991 -0.38434967 9475955
11.742693 -0.24252616 -0.2315712 9341553
11.96109 -0.28593323 -0.23094918 9736312
12.097771 -0.27586308 -0.23031449 9736313
12.303503 -0.28597364 -0.22952564 9736314
12.504512 -0.28517538 -0.23024057 9670520
12.901623 -0.29026324 -0.37810791 9343094
13.048256 -0.26975101 -0.3805874 9014386
25.792145 -0.33151391 -0.22893102 6777950
25.901703 -0.29444245 -0.27499053 6843999
26.092842 -0.29602432 -0.35602561 7172707
26.217516 -0.2625528 -0.39519909 7106913
32.525433 -0.3091248 -0.22450233 6186587
32.696053 -0.3094362 -0.26033318 6515039
32.893616 -0.30365461 -0.29331535 6909797
33.087334 -0.29438293 -0.360266 6646880
33.252003 -0.25570405 -0.38363516 7238761
10.718143 -0.14342348 -0.38511428 8685417
10.887245 -0.1244183 -0.34910056 9738873
11.32681 -0.061311495 -0.23210664 9671289
11.496453 -0.055278044 -0.23136152 9736826
11.706263 -0.081974924 -0.230665 9736310
11.899056 -0.097313479 -0.22996438 9933690
12.108688 -0.09570051 -0.24199368 9867897
12.307815 -0.10997736 -0.24214007 9999483
12.498683 -0.10592388 -0.25421178 9802105
12.918026 -0.097280465 -0.37693453 9343094
13.03153 -0.13625583 -0.37927109 9474682
25.907885 -0.09317746 -0.24953803 6975330
26.104893 -0.089942314 -0.32434979 7041122
26.217054 -0.080895238 -0.39530361 7172964
32.533413 -0.1445926 -0.21480758 6646369
32.698109 -0.10773 -0.23046547 6383966
32.90847 -0.10504718 -0.25991923 7041127
33.108459 -0.10974013 -0.32226366 6712673
33.283321 -0.096364602 -0.37551603 6844516
33.445839 -0.042815372 -0.38439277 7239018
10.529193 0.17758198 -0.23384924 9802873
10.716714 0.16789211 -0.23313332 9605496
10.900212 0.11745579 -0.23420103 9605751
11.110734 0.11944982 -0.23181418 9803130
11.299563 0.10911372 -0.23753324 9802874
11.495678 0.10031792 -0.24354975 9934716
11.69878 0.098551236 -0.2542758 9934202
11.901517 0.096652798 -0.26170182 9933946
12.096549 0.091657065 -0.27209857 9999995
12.293657 0.092745841 -0.28236902 9934202
12.497141 0.095336773 -0.29531533 9933689
12.613594 0.090545453 -0.30739737 9999484
12.936413 0.087888829 -0.37585619 9408630
25.924025 0.10679662 -0.23272133 6778464
26.109388 0.10808356 -0.30886877 7041379
26.22831 0.096395321 -0.39548257 7304807
32.749435 0.045439295 -0.21547915 6383966
32.914459 0.070499711 -0.22507584 6449501
33.103653 0.095417276 -0.26733348 6581344
33.297302 0.10168135 -0.32352769 6909795
33.492619 0.10128788 -0.3676987 7172456
33.65181 0.14284416 -0.38504946 7436140
10.169827 0.34689561 -0.23422794 10066814
10.32445 0.35122716 -0.23355646 10132095
10.504746 0.32146448 -0.23596312 9803387
10.710904 0.31359449 -0.23412405 9934973
10.900109 0.30677524 -0.24409837 9869180
11.100886 0.30333352 -0.24715635 10132095
11.298566 0.29865384 -0.26152974 10000253
11.495502 0.30169061 -0.27896893 10066559
11.695053 0.30091605 -0.28752187 9803131
11.894288 0.29984671 -0.2927067 10066301
12.098805 0.29795 -0.31263238 10328960
12.296164 0.29495773 -0.32286778 10263166
12.498047 0.29560336 -0.32543808 9999995
12.633121 0.31121612 -0.34779596 10328962
12.909376 0.27292418 -0.37396246 9212021
25.944105 0.30214259 -0.22566903 6778462
26.096487 0.30581874 -0.29543185 7041636
26.25712 0.30364025 -0.38798797 7370087
32.971325 0.22466829 -0.21611047 6252892
33.129349 0.28059497 -0.22201781 6646880
33.307266 0.2964496 -0.26467595 6909796
33.502666 0.30159789 -0.31022242 6910052
33.696583 0.31031856 -0.35334328 7304809
33.893559 0.32281235 -0.37675956 6975587
34.071449 0.37350199 -0.3858473 7501931
9.5558119 0.5386157 -0.23551798 9540728
9.7127085 0.53928983 -0.23486109 9803644
9.8824844 0.53692055 -0.23417079 9540471
10.12283 0.52660435 -0.2332394 9934971
10.306633 0.50934875 -0.24084522 10000507
10.506909 0.50917083 -0.25570077 10066044
10.708259 0.50641912 -0.26466683 10066301
10.908834 0.50700229 -0.2714417 10197885
11.109069 0.50502133 -0.27143291 10066556
11.299959 0.50517249 -0.28855443 9934715
11.496331 0.5065853 -0.31789038 10132351
11.70239 0.50579625 -0.32813349 10198143
11.896463 0.50091928 -0.33054847 10000507
12.092219 0.50732487 -0.34792623 10329470
12.295403 0.5015474 -0.35773239 10197372
12.493773 0.50102443 -0.35424194 10262909
12.639588 0.50790101 -0.37850067 10197629
25.975048 0.49011105 -0.22473559 6975842
26.096947 0.49785534 -0.27808428 7041378
26.28326 0.49868482 -0.36162162 7172964
33.171234 0.41047978 -0.21676826 6449499
33.341137 0.45116475 -0.21689856 6449755
33.508427 0.49692655 -0.24024482 6910052
33.701355 0.50039846 -0.28653607 7041637
33.897888 0.50917727 -0.32959053 7304554
34.100365 0.51534021 -0.36464664 7304809
34.282787 0.53514963 -0.38412639 7369832
34.40715 0.574489 -0.38654566 7699311
9.2852154 0.73464042 -0.23535159 9408632
9.5117674 0.70937407 -0.23457603 9343094
9.6993475 0.7089687 -0.23545004 9737595
9.9112635 0.69756538 -0.23973544 9934716
10.112431 0.70101053 -0.25941801 10197887
10.310084 0.7110092 -0.27087453 10263679
10.504337 0.69820154 -0.28539369 10263935
10.694631 0.70180279 -0.31138673 10263679
10.904377 0.70500457 -0.29936764 10197628
11.102137 0.71216446 -0.30192414 10329471
11.295392 0.69865793 -0.31764877 10132349
11.500508 0.69516277 -0.34459966 10066557
11.703434 0.70377743 -0.35951376 10263679
11.900599 0.70345843 -0.3646819 10460801
12.10416 0.70055991 -0.38020253 10395522
12.293109 0.6972906 -0.38936931 10395008
12.483571 0.6671446 -0.38877606 10329215
12.632862 0.64052659 -0.3883307 10592388
26.108541 0.6936928 -0.25721946 7107428
26.300915 0.70116442 -0.34386861 7304294
26.424316 0.7576744 -0.39716196 7370600
33.553646 0.66622204 -0.21766216 7239018
33.715981 0.69234723 -0.22400698 7304554
33.903057 0.70342201 -0.2641702 7436139
34.101933 0.70558017 -0.30437896 7436138
34.294575 0.7001543 -0.35604796 7370088
34.487415 0.71427965 -0.38469747 7698798
34.681961 0.75240093 -0.38716653 7699053
34.821861 0.78209937 -0.38725996 7698283
8.5546293 0.95090628 -0.23696454 9210744
8.7158899 0.9115116 -0.23655355 8948596
8.9132786 0.91085798 -0.23573709 9013874
9.112587 0.9402495 -0.23471473 9211253
9.2927008 0.90230036 -0.23505867 9277301
9.4924078 0.89698988 -0.24891438 9408631
9.708272 0.89299846 -0.26805165 9606008
9.9125004 0.8883484 -0.27218688 10132094
10.105097 0.88639283 -0.28055122 10001020
10.294081 0.90611696 -0.30345029 10198401
10.491976 0.89638412 -0.32163233 10132352
10.693279 0.89288855 -0.33234638 10066302
10.889822 0.89598626 -0.31857684 9868665
11.096742 0.90121013 -0.32034451 10066044
11.300301 0.89094567 -0.35849208 10000508
11.494841 0.88931793 -0.38125604 10000251
11.709248 0.88605177 -0.39055333 10197629
11.90945 0.89251953 -0.38967839 10329215
12.096308 0.86561042 -0.38774434 10066556
12.243255 0.82307684 -0.38874793 10395780
26.113245 0.89783114 -0.24385677 7041635
26.298389 0.89871264 -0.32994118 7239271
26.435785 0.8819716 -0.39731094 7239016
33.775108 0.83118266 -0.21824135 7238506
33.918884 0.88282853 -0.2215033 7435883
34.109402 0.90110826 -0.24200942 7567725
34.30431 0.89895988 -0.29516622 7567468
34.501354 0.89046419 -0.33643529 7764848
34.705814 0.89289087 -0.34875146 7698797
34.896053 0.91158062 -0.36655638 7962225
35.097321 0.97482634 -0.38793463 7830895
35.248432 0.98378962 -0.3879509 8093554
8.1604843 1.1814597 -0.23708439 8817267
8.3489294 1.1465088 -0.23653109 8882290
8.5181904 1.1105727 -0.23606409 8948084
8.6981573 1.0972493 -0.23804203 8882545
8.8956575 1.0892513 -0.23546068 9079669
9.1004362 1.0924178 -0.23706517 9408630
9.2940702 1.0930984 -0.25655258 9145715
9.4977722 1.093629 -0.27676147 9474423
9.7000017 1.0932758 -0.27583888 9803644
9.8999052 1.0902361 -0.28549564 9803386
10.092376 1.0993071 -0.30766949 9869177
10.289348 1.0970559 -0.32155558 10066299
10.494182 1.0990195 -0.345384 9934714
10.699611 1.102118 -0.3584682 10000251
10.903584 1.1001105 -0.3576647 9934457
11.103177 1.0943863 -0.35446548 10197628
11.299628 1.105541 -0.38207582 9934714
11.44515 1.0945846 -0.39027771 10065532
11.73731 1.017572 -0.38957024 10263424
11.922516 1.041627 -0.38864163 10328959
12.054445 1.023163 -0.38821459 9933944
26.127508 1.1017494 -0.24411809 7041378
26.304504 1.0974805 -0.31577763 7238500
26.445335 1.120769 -0.38462791 7435880
33.985222 1.0108768 -0.21887589 7041380
34.156639 1.043614 -0.21897674 7501931
34.32016 1.086712 -0.23653847 7567468
34.508736 1.0936209 -0.26715127 7633261
34.709908 1.0972912 -0.28206614 7699053
34.910038 1.0972322 -0.30551696 7633259
35.102154 1.0960501 -0.3378987 7896432
35.292496 1.1016433 -0.35312095 7830639
35.480705 1.1308091 -0.38574484 7896175
8.1133661 1.3098319 -0.23643458 8817266
8.3308001 1.3030047 -0.23557545 9079668
8.5061302 1.2960492 -0.24040896 9014131
8.6935949 1.2954738 -0.25558317 9409144
8.891037 1.2953107 -0.26136833 9145715
9.0873652 1.297917 -0.2704365 9408885
9.2884378 1.2996427 -0.28525132 9408885
9.4956455 1.3024251 -0.29812104 9671801
9.6960392 1.2924225 -0.30802876 9934715
9.8906832 1.3035158 -0.31161991 9868921
10.089505 1.3071461 -0.34154132 10000507
10.29336 1.3081863 -0.35187492 10131835
10.497769 1.3043497 -0.35971802 10197628
10.703989 1.3007061 -0.38207042 10395264
10.890274 1.2773131 -0.38973859 9934200
11.109019 1.2655249 -0.39054912 10197627
11.309617 1.2695905 -0.38968822 9934459
11.458224 1.2905024 -0.38893247 10065789
26.160929 1.2817788 -0.23494685 7370087
26.301521 1.3025215 -0.28579456 7238501
26.493746 1.3033459 -0.3667371 7304293
26.631369 1.3503884 -0.39887339 7567977
34.359406 1.216774 -0.21958789 7304296
34.53603 1.257109 -0.21971607 7567724
34.711754 1.2870724 -0.22863162 7567469
34.915325 1.2996125 -0.25316593 7764846
35.100658 1.2973441 -0.27242017 7896432
35.287609 1.3014002 -0.29994884 8093555
35.499233 1.3050361 -0.35101137 7830382
35.698093 1.3462512 -0.3872506 8159092
35.836399 1.3529657 -0.38923705 7895920
7.7397413 1.5821991 -0.23619366 9014128
7.9659901 1.5515848 -0.2354545 9343093
8.1052313 1.4935336 -0.23525806 9014386
8.3070068 1.4932569 -0.23442085 8817006
8.4948454 1.4982661 -0.26002723 9080179
8.6902142 1.4981977 -0.27072272 9277814
8.8904676 1.4982468 -0.27078184 9408887
9.0872173 1.5014179 -0.28586811 9540472
9.2927895 1.5071685 -0.3039518 9539957
9.4987383 1.4972979 -0.31955057 9737336
9.6960955 1.4959303 -0.34252578 9934713
9.8881245 1.4986076 -0.34339932 10132092
10.091649 1.5001225 -0.35361728 10263678
10.294599 1.5049611 -0.37202308 9934712
10.501372 1.5009416 -0.38034052 10197629
10.693418 1.4871747 -0.38972175 10131835
10.844872 1.412201 -0.39068112 9802871
26.179316 1.4471542 -0.22664443 7173218
26.315445 1.4970183 -0.25129744 6975585
26.505392 1.5015789 -0.32476074 7304550
26.669964 1.5103365 -0.38058135 7238757
34.727882 1.4112401 -0.22025895 7172453
34.931046 1.4414986 -0.2203473 7699053
35.116882 1.4964796 -0.23028213 7699052
35.295551 1.4996406 -0.25401318 7698539
35.491344 1.5019561 -0.27970308 7961968
35.701305 1.5018122 -0.31901622 8093298
35.901329 1.5010731 -0.34035331 8027504
36.092945 1.5073448 -0.3553381 8093297
36.294048 1.5518258 -0.37448096 7698282
36.4758 1.5606866 -0.38992664 8224886
36.688133 1.5830134 -0.38998508 9014915
7.755836 1.6997849 -0.23535194 9408886
7.929256 1.7035046 -0.23460636 9277300
8.1090059 1.6917313 -0.23393652 9277302
8.3039637 1.6931788 -0.24219832 9277045
8.4899359 1.6982495 -0.27019924 9408887
8.6873436 1.6959105 -0.29301089 9540474
8.9035892 1.7016586 -0.30128217 9672058
9.1060762 1.7068907 -0.30785918 9606007
9.3026094 1.7041401 -0.33051968 9539957
9.5071259 1.697845 -0.35684425 9934714
9.6996107 1.69854 -0.36813796 10197628
9.8894997 1.6944541 -0.36142004 9868663
10.093982 1.6964911 -0.3718859 10000506
10.281792 1.680541 -0.38783813 9934712
10.492901 1.6388971 -0.39065102 10329473
10.685292 1.6366445 -0.38986582 10263165
26.356972 1.6984674 -0.23855111 7304550
26.515209 1.7055732 -0.29919749 7370601
26.678329 1.704677 -0.37873203 7436393
35.182064 1.6286051 -0.2210044 8159604
35.325726 1.6455466 -0.22105056 7895919
35.511421 1.6838892 -0.22470044 7896175
35.698925 1.7062002 -0.24697129 7830639
35.900242 1.7020079 -0.27132037 7895919
36.098766 1.7087902 -0.28605676 8093298
36.303795 1.7107799 -0.33249718 7895662
36.50275 1.6960461 -0.37056309 8158834
36.693523 1.7207857 -0.38505173 7961456
36.878529 1.7552401 -0.39059421 8750971
37.043591 1.7787426 -0.39066201 8355956
7.488327 1.9245821 -0.23498316 9737337
7.7298574 1.9037378 -0.23523998 9474165
7.9098048 1.8938189 -0.23505154 9539958
8.1027765 1.8983977 -0.2524161 9408630
8.2970114 1.8971196 -0.27147347 9474679
8.5044622 1.8949351 -0.2945765 9540216
8.7069941 1.8901198 -0.31767038 9737596
8.9023743 1.9041073 -0.33913985 9868923
9.1089382 1.9091048 -0.34997156 9869179
9.3071575 1.8972737 -0.37049395 9671799
9.5078735 1.8977892 -0.39095786 9868922
9.6943083 1.8862897 -0.39086911 9868665
9.8889904 1.8854667 -0.39035141 10131834
10.05511 1.8508054 -0.39107516 9803127
26.367605 1.9101216 -0.22815579 7633517
26.519028 1.9004232 -0.25902155 7304294
26.673929 1.9094133 -0.35900319 7436137
35.58482 1.8330879 -0.22170818 8027507
35.726376 1.8273133 -0.22167145 8159349
35.934261 1.8601826 -0.22176893 7895663
36.113964 1.8975533 -0.22730482 7961712
36.302673 1.8991115 -0.26400143 7830126
36.502087 1.8947026 -0.29291776 8027248
36.700703 1.8922184 -0.32028532 8027248
36.896297 1.9016427 -0.3407754 8290162
37.102345 1.8994368 -0.37691441 7961454
37.302109 1.9373703 -0.38985485 8224626
37.489796 1.968591 -0.39130756 8224627
37.636078 1.9982924 -0.3914001 8224370
7.10568 2.1720102 -0.23494406 10001276
7.3236055 2.1584723 -0.234127 9934972
7.5041265 2.1155088 -0.23505455 9737850
7.6931372 2.104449 -0.24563876 9606263
7.8960934 2.0993001 -0.2585887 9606263
8.0935907 2.0984311 -0.27943975 9606265
8.2979155 2.0939357 -0.30671734 9606522
8.5065317 2.1028445 -0.32956269 9606008
8.701745 2.1087832 -0.35058793 9671800
8.9009609 2.0989382 -0.35948083 9671799
9.0977917 2.1013427 -0.39020228 9869434
9.282444 2.0548117 -0.39294386 10001020
9.4690809 2.0094142 -0.39246693 9671545
26.37324 2.0472677 -0.22827406 7369831
26.533968 2.1025715 -0.24339259 7370087
26.687551 2.1014929 -0.33351925 7370344
36.164722 2.0290864 -0.22236156 7895917
36.319485 2.0504487 -0.22407003 7566954
36.52095 2.0874979 -0.2300241 7961456
36.707798 2.0942011 -0.24631442 8159092
36.911015 2.1011004 -0.27945304 8027247
37.09325 2.0919867 -0.30492535 8093040
37.291996 2.1033647 -0.33265874 8224626
37.492039 2.110183 -0.35676119 8158834
37.635544 2.102484 -0.38211614 8487286
6.9388709 2.3549469 -0.23443232 9869434
7.0994864 2.3131793 -0.23507705 10132863
7.2974834 2.3000364 -0.23492123 9803385
7.4939814 2.300992 -0.24785307 9869435
7.6914325 2.3040705 -0.26820457 9803899
7.9015956 2.3064637 -0.29509267 9738105
8.1076937 2.2988772 -0.31615779 9672313
8.3033552 2.2932453 -0.33811271 9869434
8.4970493 2.3047786 -0.36001173 9869178
8.6953478 2.3127627 -0.37945113 9935228
8.89641 2.2987673 -0.39104402 9803386
9.0886955 2.2651052 -0.392364 10066814
26.559891 2.2979956 -0.2373711 7436139
26.694674 2.3078244 -0.3118479 7435881
36.560818 2.2216609 -0.22302262 8026990
36.731049 2.2443638 -0.22308692 7961711
36.9174 2.2834969 -0.23037201 8158833
37.117634 2.2977719 -0.24345738 8092784
37.311512 2.3041911 -0.26207474 8093040
37.50396 2.3006315 -0.29361272 8356213
37.617352 2.266006 -0.32753682 8488054
-4.4184866 2.570869 -0.2134912 5661004
-4.3982563 2.5941489 -0.21359015 6054994
6.5242844 2.5554996 -0.23483489 10263678
6.7258506 2.5378125 -0.23411331 10066555
6.8982391 2.4997766 -0.23540609 10198142
7.0922804 2.4966357 -0.25351951 10000764
7.3072252 2.4910691 -0.2553786 10066558
7.5018368 2.5124958 -0.27403134 10001278
7.6985917 2.5102251 -0.30743173 9869690
7.9016438 2.5007515 -0.32229257 9803898
8.0970469 2.5002902 -0.3455632 9935227
8.2941704 2.4894035 -0.35984164 10000763
8.4830894 2.4894032 -0.38532534 9934970
8.6682243 2.4602008 -0.39282691 10066557
8.8586588 2.4207556 -0.39229488 9737592
26.5723 2.4951155 -0.22984712 7107431
26.709791 2.5006366 -0.28945106 7304296
26.856018 2.5380673 -0.35044134 7172709
36.941677 2.412324 -0.22367811 8158832
37.115475 2.4290762 -0.22372051 8224627
37.314865 2.4678643 -0.22384049 7829867
37.506821 2.4893129 -0.23793383 8159091
-4.4328313 2.650754 -0.2136324 6974558
-4.3885579 2.6429257 -0.21372008 6974819
6.3417263 2.7370224 -0.23439805 10066300
6.5071898 2.7030051 -0.24037038 10198142
6.7039266 2.6948051 -0.25474676 10198141
6.9089475 2.6932664 -0.25991163 10066298
7.1020164 2.6883364 -0.27201375 10132604
7.3032908 2.6973279 -0.28141397 10066812
7.5107622 2.7086453 -0.30260292 9934971
7.6994214 2.70438 -0.32831484 10066814
7.896534 2.7049835 -0.35452133 10000762
8.1076994 2.6910653 -0.36949977 10132349
8.2991076 2.6908062 -0.39171863 10198141
8.4596872 2.6449926 -0.39247653 10329728
26.587128 2.7102504 -0.23007187 6976100
26.728008 2.70509 -0.2702252 6844000
26.892862 2.7094114 -0.33007723 6975586
27.040276 2.752528 -0.3588962 6975843
37.519344 2.6316543 -0.22441727 8685949
6.1773744 2.976258 -0.23350525 10132350
6.3252392 2.9087934 -0.23530832 10132607
6.5103865 2.8925612 -0.25404507 10001276
6.6985264 2.89099 -0.27586147 10197886
6.8997331 2.8876259 -0.27601853 9934457
7.1041651 2.8929839 -0.28074273 9934969
7.300848 2.9041791 -0.30619818 9869435
7.5006232 2.9069295 -0.32807314 9803385
7.6961837 2.9106681 -0.35211918 10000507
7.9038115 2.8980427 -0.37469968 9934971
8.1080866 2.8962715 -0.39228299 10067069
8.244709 2.8702986 -0.391886 9935484
26.595591 2.8959701 -0.23023748 7107176
26.730635 2.9054096 -0.24698533 6712415
26.90571 2.9059966 -0.30225217 6843744
27.051901 2.9076169 -0.35355437 6975588
5.8582635 3.1588509 -0.23362906 8948078
6.1440783 3.1175189 -0.23271289 9934971
6.3132319 3.0973012 -0.24435599 10132607
6.5154238 3.0945916 -0.26386088 9737591
6.6933737 3.0949445 -0.2938174 9540210
6.8993888 3.0896425 -0.29852727 9737077
7.105823 3.0891168 -0.3052851 9737077
7.3015623 3.1074007 -0.33648908 9868921
7.4900928 3.1048872 -0.35950959 9803386
7.7007155 3.1077147 -0.37713778 10264451
7.9036655 3.1018176 -0.39082962 9935486
8.0665894 3.0629363 -0.39135739 9935228
26.742926 3.0816269 -0.23530118 6580830
26.90663 3.1135874 -0.28363901 6778211
27.064863 3.1107054 -0.3497802 6909796
5.9043732 3.2376773 -0.23291788 9803901
6.1136951 3.2459669 -0.23424053 9803643
6.3136702 3.2483921 -0.25570825 10198399
6.5080638 3.2602232 -0.28032544 9671285
6.7027984 3.2633097 -0.30878291 9671541
6.9045115 3.2662985 -0.31620309 9604977
7.0989246 3.2760556 -0.33767349 10065526
7.2942967 3.2925515 -0.36725309 9671540
7.4960194 3.2988665 -0.3921755 9539958
7.7024679 3.2496319 -0.39164141 10000249
7.8316255 3.2473431 -0.39111939 10132349
26.795393 3.2246583 -0.23174477 6844513
26.941597 3.2376404 -0.27408558 6515550
27.101149 3.2631929 -0.34002629 6581343
27.246674 3.2990303 -0.36057597 6646621
-2.0051546 -3.2019987 -0.16882992 6712414
-1.835529 -3.2305706 -0.16916974 6120534
-1.6842402 -3.272758 -0.16815725 5989205
-1.5150111 -3.2488458 -0.14163403 5989461
-1.3707983 -3.2132673 -0.13322425 6514521
6.1275392 -3.2031386 -0.091531754 5135177
6.3061366 -3.2190838 -0.092507042 5529422
6.5004349 -3.2288086 -0.12043126 6448989
6.7025561 -3.2544324 -0.14444406 6251867
6.9037905 -3.2673507 -0.16373655 6317402
7.0914488 -3.2755921 -0.17422517 5857618
7.2222719 -3.2143879 -0.17490435 6712419
-2.0389171 -3.0383933 -0.16910866 6712159
-1.9001226 -3.1000688 -0.1669848 6514780
-1.6965597 -3.0911126 -0.13814655 5989203
-1.4999987 -3.0982821 -0.11453397 6449244
-1.3062675 -3.0877414 -0.10432474 6252119
-1.1206396 -3.053755 -0.097705863 6449500
-0.98240149 -3.0196643 -0.08018136 5792343
5.3827105 -3.0432253 -0.012608051 5727060
5.5056386 -3.0569229 -0.013280639 6449243
5.7046809 -3.0691509 -0.024181858 6252122
5.9083061 -3.0872302 -0.050812107 6317917
6.1081409 -3.0969579 -0.074776202 5988949
6.3062658 -3.1004019 -0.088012077 5529677
6.5032725 -3.1009266 -0.11583262 5923410
6.7049727 -3.096123 -0.1329896 6711904
6.9051762 -3.1054528 -0.15360621 7106405
7.0932651 -3.0942533 -0.17414741 6777956
7.2234516 -3.0863938 -0.17484885 6974824
10.933327 -3.0200686 -0.10955739 10461314
11.112464 -3.0225987 -0.11636353 10066812
11.294385 -3.0305271 -0.14242376 10132349
11.50717 -3.0348732 -0.15371907 9869179
11.717466 -3.0360081 -0.1569435 9803129
11.901481 -3.0354331 -0.14436743 9802872
12.097169 -3.0362339 -0.11566526 9078636
12.305044 -3.0203836 -0.055539031 8880232
12.413531 -3.0195465 -0.055082321 7434336
30.915787 -3.0606201 -0.027816176 7238759
31.104858 -3.0881562 -0.097459354 7106915
31.221365 -3.0956066 -0.16085924 7304293
40.574989 -3.0231628 -0.13443947 7763817
40.707741 -3.035706 -0.15809715 8027245
40.834217 -3.0322254 -0.1724122 8026987
-2.0742607 -2.8902521 -0.16260691 6252118
-1.8948234 -2.8932426 -0.13913269 6777438
-1.7008842 -2.9038498 -0.11964483 6974816
-1.5041635 -2.9059389 -0.09712024 6712160
-1.3022337 -2.8994098 -0.094957687 6712160
-1.0975976 -2.9025114 -0.078335606 6186584
-0.90691584 -2.8891304 -0.045088064 5857874
-0.71502227 -2.8447344 -0.028009452 6054739
-0.56683356 -2.8155689 -0.028425058 6776669
5.3539424 -2.9298062 -0.012397289 6120280
5.5197973 -2.9018295 -0.013282381 6383454
5.6957455 -2.9027724 -0.014236062 6120792
5.8983316 -2.9018159 -0.037148599 6449758
6.0949521 -2.8970428 -0.058101635 6317914
6.2985778 -2.8987975 -0.078453094 6120535
6.490829 -2.8961513 -0.093351558 5857618
6.6959696 -2.8975105 -0.13209227 6383452
6.8968167 -2.9105928 -0.140587 6449501
7.100842 -2.8931177 -0.16758208 6777957
7.2334538 -2.89975 -0.17481279 7105899
10.938036 -2.8869455 -0.1268414 10066041
11.093528 -2.9009778 -0.12622312 10000763
11.292436 -2.9018505 -0.16268876 9869434
11.500124 -2.9291146 -0.14311974 9539701
11.706599 -2.9412382 -0.13847595 9473652
11.901389 -2.9170806 -0.075824358 9144173
12.096136 -2.8938744 -0.039320417 8880231
12.305671 -2.8903143 -0.028392037 8617829
12.407639 -2.9001977 -0.017857483 8355686
30.933374 -2.9116111 -0.01346824 6778463
31.091209 -2.8994327 -0.077690534 7172964
31.25489 -2.894839 -0.1527392 7370599
40.321255 -2.9300697 -0.033151001 8093038
40.497013 -2.9023657 -0.058019944 8026990
40.699162 -2.9004056 -0.097324193 7961195
40.903717 -2.9012182 -0.13623938 8158318
41.088516 -2.8832517 -0.16351436 8355953
41.285416 -2.8249815 -0.17325452 7961451
-2.2097638 -2.6725245 -0.15096295 7106404
-2.0981567 -2.6957209 -0.14553329 7105889
-1.9030441 -2.7047086 -0.12563586 6383192
-1.6959554 -2.7031753 -0.10656298 6251863
-1.494859 -2.7061551 -0.096343741 6251863
-1.2971944 -2.6942687 -0.072260141 6317657
-1.1039293 -2.6968708 -0.050439689 6515039
-0.8999601 -2.6992929 -0.027889693 6120793
-0.69607818 -2.7258878 -0.028315041 5792081
-0.50576818 -2.7209566 -0.028777409 6186328
-0.34598967 -2.7001328 -0.029202094 5792083
5.5436287 -2.7274704 -0.013327241 6974566
5.7021489 -2.7011616 -0.014173384 7040099
5.8989553 -2.697135 -0.029932139 6055255
6.1079073 -2.7022791 -0.053470667 6383707
6.2984352 -2.6975455 -0.066806674 6975076
6.4985437 -2.7054932 -0.097217679 5923925
6.6972761 -2.6948247 -0.1290635 5989206
6.894218 -2.6998043 -0.13228811 6515553
7.0924053 -2.6967034 -0.15102698 5989718
7.2336774 -2.7018666 -0.16355979 5594959
10.944445 -2.6935499 -0.14346159 9935226
11.105702 -2.6938648 -0.15750329 10198143
11.281905 -2.7165339 -0.18138337 10198142
11.447541 -2.75297 -0.18228824 10132349
11.750781 -2.7030537 -0.019289851 8880230
11.900285 -2.7046595 -0.018678751 9143146
12.102233 -2.6980166 -0.020186268 9340782
12.308159 -2.7027769 -0.028240768 8289635
12.414785 -2.7043061 -0.025652885 8684646
30.947515 -2.7094958 -0.010235247 6844254
31.092501 -2.6943188 -0.074092261 7107172
31.284359 -2.7017441 -0.1502278 7567209
31.404846 -2.652422 -0.16529973 7436135
40.547314 -2.7789807 -0.026000787 8619896
40.711647 -2.7375295 -0.035908367 8224881
40.909348 -2.7013233 -0.057468362 8027244
41.094025 -2.7026911 -0.094694972 8158573
41.29211 -2.6981905 -0.13173215 8093295
41.480461 -2.685245 -0.16357149 8224368
41.690018 -2.6326013 -0.1739893 8158316
41.851051 -2.6095796 -0.17444992 8487281
-2.2415435 -2.4873257 -0.13275073 6121045
-2.1039386 -2.4986005 -0.12784368 6646368
-1.8973709 -2.501719 -0.10363713 6909027
-1.7025228 -2.5028429 -0.088928655 6777441
-1.5015483 -2.4945574 -0.077640787 5660752
-1.2991351 -2.4993515 -0.06402275 6974820
-1.0973959 -2.5045931 -0.042485643 6777441
-0.90516174 -2.5070112 -0.028964493 6448989
-0.7155571 -2.5398591 -0.028676966 6186328
5.5770898 -2.5432761 -0.013419509 5660495
5.7056313 -2.506289 -0.014098082 6383194
5.9013629 -2.5015373 -0.020973543 6252121
6.0977015 -2.4966249 -0.044032089 5923668
6.2945156 -2.4986918 -0.064379588 6514780
6.4968448 -2.4992304 -0.098985769 6711904
6.7025561 -2.5013933 -0.11873226 6186071
6.8995109 -2.4990754 -0.13375503 6252381
7.0959072 -2.5016365 -0.1439608 6974820
7.2439485 -2.4933293 -0.16061352 6186070
10.940299 -2.5014715 -0.14907989 9869432
11.090001 -2.5049367 -0.17120013 10066555
11.248495 -2.529017 -0.18329518 10132347
11.712646 -2.4852934 -0.018013716 8091490
11.911503 -2.5004332 -0.018030662 8880489
12.096807 -2.4948363 -0.022313222 9143404
12.297981 -2.4998038 -0.043519862 8945769
12.417877 -2.489624 -0.046363831 8354152
30.970764 -2.5222483 -0.010917881 6910049
31.093821 -2.5052576 -0.064428732 6909793
31.300983 -2.4960957 -0.13347699 6975585
31.425419 -2.5001993 -0.16364636 7239014
40.970169 -2.5773866 -0.026766935 8553846
41.119781 -2.5558283 -0.037773442 7764072
41.306068 -2.5071452 -0.056549937 8092781
41.503048 -2.5067987 -0.094582081 8355696
41.700581 -2.4936414 -0.11940336 8421745
41.887901 -2.489449 -0.15682998 8684917
42.0532 -2.4369838 -0.1745768 8685174
-2.2828693 -2.2920513 -0.13226658 6712157
-2.0941198 -2.2981312 -0.10970373 6646111
-1.8991785 -2.30106 -0.096181907 6974823
-1.6956031 -2.2940826 -0.06680122 6974825
-1.5023977 -2.3004007 -0.056967754 6515552
-1.2995793 -2.2989848 -0.040956713 6844262
-1.1093448 -2.3145685 -0.028236844 6120794
-0.89794374 -2.3168514 -0.028733343 5989719
-0.76664543 -2.2972183 -0.02908802 4939078
5.7345715 -2.3803635 -0.014194012 6842976
5.9035401 -2.3032346 -0.016617388 6054743
6.0976577 -2.3011508 -0.039857876 6383452
6.2983942 -2.3004835 -0.059577607 6186328
6.500946 -2.2998178 -0.089202233 6711904
6.6936717 -2.3016207 -0.098960854 6055255
6.8943872 -2.2976885 -0.13362999 6186328
7.0969658 -2.2992122 -0.14693291 6974564
7.252892 -2.2932234 -0.15770121 5660243
10.921637 -2.3233914 -0.17533524 10066557
11.063264 -2.3407943 -0.18418965 10132093
11.760679 -2.2943385 -0.01655565 8288101
11.921773 -2.3020883 -0.026112722 8025701
12.102533 -2.3041577 -0.041717581 8814699
12.299358 -2.2999544 -0.042401426 9341298
12.423175 -2.2896793 -0.050233405 9538419
30.980652 -2.3979244 -0.011371613 7107172
31.112495 -2.3117268 -0.037358768 6647134
31.29707 -2.2951581 -0.096832372 6909794
31.446659 -2.3018579 -0.15905839 7172967
41.393047 -2.39166 -0.027583122 8224881
41.504906 -2.3711569 -0.027889142 8158832
41.712048 -2.3141572 -0.043696087 8290159
41.899227 -2.3049006 -0.090625167 8290159
42.102978 -2.3022797 -0.13934833 8355953
42.297379 -2.2830276 -0.16112652 8422003
42.430733 -2.2556157 -0.16466066 8421745
-2.428941 -2.0864735 -0.13318543 6646367
-2.2976074 -2.0991502 -0.11019575 6909282
-2.1003101 -2.0987399 -0.095325157 6120535
-1.8991337 -2.1051245 -0.096586697 6317401
-1.6994641 -2.1004376 -0.077627957 6975076
-1.4992592 -2.0994737 -0.045094263 6646623
-1.3272923 -2.1139078 -0.028159894 6515038
-1.1564648 -2.1778278 -0.02842493 6711644
-0.94731623 -2.1715527 -0.028934956 5595727
5.9336224 -2.1122563 -0.015142787 6054486
6.0950599 -2.1006496 -0.022556426 5923669
6.2942028 -2.1057715 -0.044135064 6908770
6.4974689 -2.1019399 -0.074141175 6054741
6.6965828 -2.1072493 -0.11020517 4937035
6.9032049 -2.0967629 -0.13051012 5791064
7.0909543 -2.113143 -0.14077234 6054745
7.26548 -2.0898311 -0.17013161 4279107
10.2921 -2.0182104 -0.020843029 8552817
10.560991 -2.0209379 -0.019742966 7895911
10.749216 -2.0228469 -0.018972874 7764324
10.850795 -2.1690881 -0.18512249 10066301
11.336387 -2.019839 -0.01651144 9012850
11.509082 -2.0502748 -0.015993897 9275768
11.707214 -2.0896494 -0.015429488 8880236
11.902496 -2.1080849 -0.036009062 8748910
12.10186 -2.1055052 -0.05035606 8814699
12.296834 -2.0962794 -0.042056862 8880491
12.422858 -2.0975802 -0.04896912 9275505
31.165285 -2.1250844 -0.022506384 6712160
31.29937 -2.1033342 -0.078168809 6647136
31.466496 -2.0987923 -0.15882649 6975589
41.93573 -2.1580486 -0.038720675 8027244
42.109116 -2.1122773 -0.058445711 8356209
42.29697 -2.1015079 -0.0856793 8553589
42.41552 -2.1422985 -0.12561011 8816504
-2.4561937 -1.8862499 -0.10100479 6909798
-2.3045287 -1.9040431 -0.09328191 6974818
-2.0969286 -1.8967644 -0.070509151 6777442
-1.9032882 -1.9021558 -0.056988969 6514523
-1.6989455 -1.898458 -0.059106156 6777440
-1.5006678 -1.8990014 -0.047514491 7237738
-1.3230304 -1.9015368 -0.028635835 6251608
5.9493699 -1.9820675 -0.01516517 5989461
6.1228991 -1.911343 -0.016071141 6252121
6.2983608 -1.9026221 -0.020653378 6974562
6.4938836 -1.9009171 -0.061223604 6383448
6.6938267 -1.8966429 -0.093996309 6054740
6.8981824 -1.895246 -0.10614633 4081473
7.1048803 -1.9064833 -0.14366387 4936523
7.2792563 -1.8951302 -0.16155718 5858131
9.5879593 -1.8429964 -0.022616506 8487276
9.7114058 -1.8240799 -0.021978697 7896421
9.8368883 -1.8253525 -0.021465063 7502177
10.154774 -1.8584563 -0.020361476 7896425
10.29293 -1.875816 -0.019901363 7895913
10.503201 -1.883937 -0.020456512 8289899
10.697275 -1.892608 -0.018330676 8092776
10.894851 -1.867457 -0.017343419 8421228
11.098347 -1.8471116 -0.016363224 8552812
11.311495 -1.8775368 -0.017413741 8881522
11.507694 -1.8917059 -0.0238987 9275763
11.703313 -1.8945651 -0.029610811 9012078
11.897925 -1.8973048 -0.038353126 8683116
12.09988 -1.9022927 -0.044547457 8814701
12.300724 -1.895609 -0.048171159 8420456
12.43661 -1.8929607 -0.07640902 8091494
31.171824 -1.823475 -0.01345253 6975079
31.300461 -1.9016846 -0.052871309 6383709
31.484329 -1.8943392 -0.13893624 6777954
31.611187 -1.8707323 -0.16813736 6712673
42.310867 -1.9816364 -0.029333027 8421746
-2.4880445 -1.6927683 -0.085241169 7040612
-2.2974539 -1.6990656 -0.074938364 6646109
-2.1088936 -1.7004154 -0.058876827 6580574
-1.9033334 -1.6981413 -0.027705239 6974561
-1.7055284 -1.7034428 -0.030462608 6711646
-1.5010509 -1.6945885 -0.031141993 6514779
-1.3395003 -1.7156762 -0.02900441 5923409
6.0856028 -1.7254103 -0.00054991245 9079667
6.2962432 -1.7000283 -0.016908169 6515292
6.4965849 -1.699597 -0.051396333 6449242
6.7000642 -1.6980602 -0.079111956 6120279
6.8962488 -1.6974782 -0.094981633 4936014
7.0971413 -1.7043036 -0.11240721 5133391
7.2765098 -1.6931903 -0.13653643 5396819
9.3814039 -1.6593832 -0.022265529 8817011
9.5216074 -1.680989 -0.023482377 8422510
9.7032175 -1.6962622 -0.021170441 8356205
9.8904037 -1.6892424 -0.020345863 7896678
10.10782 -1.6842892 -0.019409159 8093548
10.295364 -1.6955451 -0.018703509 8553330
10.496997 -1.6951095 -0.021005573 8684659
10.704053 -1.7004255 -0.039739698 8618609
10.894993 -1.6988841 -0.036978427 8684658
11.095678 -1.6966537 -0.035108935 8815730
11.302159 -1.703733 -0.035583716 8881265
11.503963 -1.6968277 -0.048902988 9209971
11.704367 -1.688529 -0.060973201 9341045
11.900528 -1.6886945 -0.059143607 8749422
12.0974 -1.7013806 -0.050165031 7763046
12.300658 -1.6974217 -0.062735029 8881007
12.435596 -1.6873802 -0.083300255 6908251
31.17181 -1.7961248 -0.013552666 6843748
31.313023 -1.7117119 -0.038796864 6317660
31.495531 -1.6963378 -0.10785009 6186586
31.627943 -1.6820343 -0.168826 6186841
-2.6231444 -1.4783145 -0.07198637 6974562
-2.5021181 -1.4998187 -0.072527662 6646365
-2.3002534 -1.5003036 -0.068023637 6317656
-2.1011734 -1.5018437 -0.059602298 6842716
-1.8990465 -1.50251 -0.028774202 7697260
-1.7007693 -1.5000509 -0.028620292 7303527
-1.5122905 -1.5085726 -0.029048743 6317657
-1.3566698 -1.5442308 -0.02933971 5792079
6.3293948 -1.5064397 -0.016994197 6581085
6.5029283 -1.5001143 -0.039479636 7106406
6.6975183 -1.4983946 -0.073729403 6120026
6.8996577 -1.4986634 -0.092043974 6975076
7.0991154 -1.5016088 -0.10615596 7172196
7.2832522 -1.4918932 -0.13266955 6580830
8.7832375 -1.420256 -0.023177465 9671032
8.92383 -1.4342313 -0.022684764 9145459
9.0995131 -1.4464338 -0.022034675 9079666
9.3320198 -1.4459909 -0.021064997 8751216
9.5217409 -1.4953359 -0.026070679 8751217
9.7059193 -1.4987216 -0.04146545 8750963
9.8923979 -1.4989492 -0.040961657 8093802
10.096542 -1.4962084 -0.026898535 8027754
10.298136 -1.4971303 -0.027151601 8421999
10.502337 -1.5011238 -0.040674556 8421999
10.704973 -1.5027845 -0.050814942 8881269
10.896644 -1.4990315 -0.051371634 8815730
11.100948 -1.5010761 -0.050546352 8815473
11.307489 -1.4990556 -0.056082312 8749679
11.500417 -1.4968185 -0.074944623 9210231
11.696958 -1.49546 -0.087383412 9407097
11.903708 -1.4953108 -0.086267464 9340532
12.110947 -1.5043967 -0.087858908 6973791
12.300641 -1.4958841 -0.086761676 5395794
12.440171 -1.4921036 -0.086915329 8616809
31.369156 -1.5020533 -0.025784792 5595217
31.50111 -1.5035293 -0.090378068 6120537
31.676636 -1.4795213 -0.15022588 6055257
31.810137 -1.4156522 -0.16978073 6777700
-2.6643572 -1.2904136 -0.062056556 6580314
-2.4993296 -1.2987485 -0.061213855 6909026
-2.3008654 -1.3007437 -0.062255133 6580317
-2.1054521 -1.3033847 -0.06058839 6251605
-1.9004828 -1.3047324 -0.033145957 6777182
-1.7145419 -1.3224646 -0.028977156 6777438
-1.5668002 -1.337923 -0.029293757 7303016
6.1706672 -1.3185692 -0.016043458 8092790
6.3071604 -1.3036261 -0.016775763 7566703
6.4973073 -1.2991705 -0.022166841 6843486
6.7005563 -1.2962645 -0.050581347 6515035
6.9074364 -1.3008801 -0.090399519 7040865
7.1050563 -1.3017136 -0.10819075 6909536
7.3019009 -1.2955756 -0.13535346 7106145
8.0680523 -1.229243 -0.024892807 10132093
8.7649632 -1.2884141 -0.022384644 9474165
8.910018 -1.2932899 -0.021813637 9211506
9.1050749 -1.3002675 -0.021048529 9277301
9.3080082 -1.2907828 -0.020142205 8882545
9.5026569 -1.3033397 -0.019415583 8488302
9.6958437 -1.2919213 -0.03351295 8816756
9.8963051 -1.300982 -0.053497002 8553840
10.099122 -1.3012571 -0.054034963 8159339
10.30199 -1.303164 -0.052553751 8488048
10.499043 -1.3028157 -0.062521026 8487791
10.70116 -1.2986859 -0.072143815 8356205
10.901391 -1.2994498 -0.063282229 8618605
11.096267 -1.3032969 -0.064867467 8947572
11.300186 -1.2994307 -0.073522188 8881010
11.508204 -1.2991592 -0.08459866 9078131
11.697556 -1.2971867 -0.085277729 9275511
11.898265 -1.3053172 -0.088821165 8814705
12.103712 -1.3012238 -0.095609389 6710881
12.302505 -1.2913744 -0.10188674 7762792
12.449306 -1.2886196 -0.11050925 7170658
31.506933 -1.3033223 -0.048145078 5989210
31.688219 -1.3023976 -0.12462214 6317918
31.872307 -1.2672449 -0.17031689 6449760
-2.8152905 -1.0393207 -0.062249184 5725011
-2.6955075 -1.0981684 -0.06240432 7237222
-2.5046573 -1.1025896 -0.054931339 7236965
-2.3075075 -1.1047239 -0.040037211 7039841
-2.1095567 -1.1225585 -0.032190334 6580316
-1.9563364 -1.1719732 -0.02873365 6383192
6.2967291 -1.1917467 -0.01666522 7040611
6.5094242 -1.0965514 -0.017771468 6843485
6.7011538 -1.103369 -0.033805788 6515544
6.8990993 -1.0963293 -0.08024583 6843996
7.0967379 -1.1048863 -0.095768601 7632490
7.2998815 -1.093387 -0.1172791 7369829
8.0426598 -1.0810819 -0.024022102 9869436
8.204402 -1.0423852 -0.023094654 10132863
8.5568733 -1.0534301 -0.021701761 9605753
8.7092905 -1.1006056 -0.021378743 9408630
8.9029741 -1.1032537 -0.020590825 9408374
9.1020727 -1.1022371 -0.019756241 9211252
9.3064508 -1.0939003 -0.018851504 8816753
9.5007048 -1.094323 -0.020150185 8882546
9.6999826 -1.1066278 -0.043442376 8553838
9.898634 -1.0996792 -0.062330585 9013878
10.100271 -1.102562 -0.077982903 8356718
10.305943 -1.1065077 -0.078394517 8488306
10.495838 -1.1031566 -0.085377149 8816245
10.703937 -1.1012837 -0.085988492 8618863
10.90951 -1.0978408 -0.087980807 8881521
11.10408 -1.0981135 -0.088581868 9078386
11.297379 -1.1042949 -0.08999528 8881265
11.487795 -1.095736 -0.091726623 9209717
11.697245 -1.099979 -0.10601207 9274996
11.903029 -1.1014041 -0.10994799 9668982
12.096518 -1.0996579 -0.10987004 9011825
12.299094 -1.1015221 -0.12732871 9341047
12.458443 -1.1020385 -0.1408973 9340792
25.665237 -1.094818 -0.18130517 7172965
31.552624 -1.1353575 -0.027438661 5791575
31.691175 -1.0996779 -0.079111487 6054748
31.887169 -1.0896223 -0.15334429 6186076
32.036503 -1.0426817 -0.17112057 6383455
-2.8494565 -0.88972688 -0.064106673 5659732
-2.7021356 -0.90068734 -0.057499111 6645858
-2.495641 -0.90142536 -0.036031544 6316891
-2.3045831 -0.89984626 -0.028504308 6251352
-2.1697555 -0.89985847 -0.028824199 6251604
6.3870277 -0.85558784 -0.016991956 6975842
6.5035834 -0.89595139 -0.017642874 7172195
6.6967044 -0.90202743 -0.036885269 7172450
6.8966031 -0.90051931 -0.060790192 7040862
7.0996075 -0.90248936 -0.08407864 7435366
7.2975197 -0.89519995 -0.10083812 7173220
7.4033585 -0.94145578 -0.13573217 7698540
8.1411419 -0.85987169 -0.022155084 9672312
8.297328 -0.88365906 -0.021662334 9737593
8.5029898 -0.88895345 -0.020842064 9408630
8.7050734 -0.89809304 -0.020061996 9277043
8.9050169 -0.9015879 -0.019253643 9211253
9.0953751 -0.90513235 -0.01848546 9277300
9.297822 -0.8997156 -0.023266019 8685423
9.4974766 -0.89767838 -0.026359884 8751473
9.697485 -0.90192211 -0.050687417 8817010
9.8973207 -0.89903712 -0.073825866 8619631
10.096129 -0.9038282 -0.10019878 8356716
10.297788 -0.89843088 -0.095595472 8684912
10.49883 -0.90211964 -0.088398933 8816243
10.692571 -0.90923226 -0.091580302 8750191
10.895459 -0.90361643 -0.1013821 9013107
11.098234 -0.89472896 -0.11011264 9144692
11.297806 -0.90641236 -0.11554541 8815729
11.495499 -0.89711857 -0.1271217 9275766
11.701385 -0.9037804 -0.14633144 9538939
11.891118 -0.9034521 -0.13457404 9537909
12.097683 -0.9106105 -0.14338367 9538165
12.300312 -0.89644063 -0.1586275 9537909
12.458125 -0.90012872 -0.15611348 9012338
25.673618 -0.89941484 -0.18147612 7172965
31.724993 -0.91629434 -0.035610132 5463377
31.892303 -0.89831042 -0.11678548 5791830
32.077229 -0.87620759 -0.16799906 6448993
32.253506 -0.82546711 -0.17189145 6251354
-2.8810813 -0.69041699 -0.033163786 6908512
-2.6999888 -0.71115208 -0.027980104 4344137
-2.4975471 -0.70594269 -0.028471803 5001291
-2.3408201 -0.7549423 -0.028736144 4935754
6.3435426 -0.68570155 -0.016674329 7106657
6.5003023 -0.70524156 -0.017532999 7632490
6.690712 -0.69803739 -0.02158851 7829610
6.8959289 -0.70018762 -0.05263928 7238498
7.0916486 -0.69469362 -0.057817698 7304290
7.3001413 -0.70671946 -0.093776196 7501929
7.4071493 -0.65857315 -0.097234726 7501158
7.9847322 -0.69325602 -0.021707725 9474679
8.1002464 -0.70518434 -0.021305921 9606007
8.3053894 -0.70179582 -0.020430606 9606007
8.5037184 -0.69583112 -0.019566629 9540471
8.7023687 -0.69939077 -0.029019319 9474935
8.9029627 -0.70237291 -0.034227781 9211250
9.0975494 -0.70077825 -0.03258045 9211507
9.2964563 -0.70574605 -0.037081875 8948594
9.4945869 -0.69821227 -0.051181111 9014131
9.6978922 -0.70040894 -0.051094346 9079668
9.9026518 -0.70375413 -0.071788117 8685423
10.091145 -0.69869351 -0.10985582 8619631
10.300211 -0.69860429 -0.11473185 8816754
10.505914 -0.7003839 -0.10438247 8882545
10.696238 -0.70525312 -0.10022988 9145461
10.88833 -0.69976568 -0.11133604 9013360
11.091819 -0.70190585 -0.1179438 9144946
11.28689 -0.69866037 -0.12763168 9210741
11.495898 -0.70770878 -0.1479502 9341815
11.710822 -0.70294982 -0.15593529 9472886
11.89124 -0.70146787 -0.15676939 9670007
12.089472 -0.70315015 -0.16759051 9604215
12.293786 -0.69145668 -0.16415657 9406580
12.468341 -0.69359261 -0.16946179 9209973
25.693329 -0.71250051 -0.18171641 7304550
31.772999 -0.74284422 -0.01734066 6317667
31.909296 -0.70915449 -0.068576582 6054493
32.111832 -0.69047803 -0.14083284 6252126
32.248123 -0.68741763 -0.17239726 6515297
-3.0237484 -0.44994983 -0.02778496 5988178
-2.9079578 -0.51285857 -0.027921619 5855832
-2.7052341 -0.50619805 -0.028417174 5264205
-2.4854274 -0.50588626 -0.028939387 5133135
6.35252 -0.50718683 -0.016636662 7631974
6.5162287 -0.49513537 -0.017517738 7369058
6.7004843 -0.50522387 -0.018520813 7698279
6.8988357 -0.49625382 -0.049405351 7895402
7.0949693 -0.50238669 -0.068305738 7632999
7.3025389 -0.49975964 -0.093098082 7501672
7.419353 -0.48310116 -0.09721595 8158063
7.7132092 -0.41889733 -0.021028996 9211507
7.9636745 -0.48866671 -0.020447273 9408886
8.1022854 -0.5035184 -0.019968748 9408885
8.2995071 -0.50122511 -0.022122337 9145713
8.5044689 -0.49453661 -0.021957971 9343351
8.7002897 -0.49902245 -0.041544218 9277557
8.9012442 -0.501876 -0.047889885 9211766
9.1036434 -0.50428575 -0.050319757 9014386
9.3081589 -0.50451958 -0.052166034 9013873
9.4941025 -0.49730128 -0.072458245 9014131
9.6980124 -0.50025105 -0.079358578 9014130
9.901125 -0.50179642 -0.088840857 9080179
10.094855 -0.49556544 -0.12059656 8883057
10.302002 -0.49834028 -0.12549017 8685165
10.509842 -0.50124782 -0.13218443 9079668
10.702017 -0.50217241 -0.12199176 9079667
10.897079 -0.50505519 -0.12982942 9276790
11.092989 -0.50811368 -0.13920453 9276533
11.291288 -0.49797982 -0.15291432 9342068
11.497934 -0.50442058 -0.16063443 9538934
11.699551 -0.49675578 -0.1707052 9736312
11.89702 -0.49061567 -0.18857224 9933435
12.089734 -0.49671301 -0.19205627 9802106
12.302074 -0.50276417 -0.18826561 9407092
12.481927 -0.50596714 -0.18922657 9472887
25.710619 -0.47722834 -0.18196918 6778462
