# .PCD v0.7 - Point Cloud Data file format
VERSION 0.7
FIELDS x y z rgb
SIZE 4 4 4 4
TYPE F F F U
COUNT 1 1 1 1
WIDTH 1195
HEIGHT 1
VIEWPOINT 0 0 0 1 0 0 0
POINTS 1195
DATA ascii
-6.1055317 1.3109379 -1.0594029 8355690
-5.905612 1.2966453 -1.0674231 8224103
-5.6974506 1.3075725 -1.0759338 8223849
-5.3062019 1.3153039 -1.0918508 8223851
-5.0602546 1.3166474 -1.1018347 9012596
-4.9004583 1.3298279 -1.1083977 8683630
-4.75282 1.3183265 -1.1143144 8684142
-4.5068722 1.31967 -1.1242983 9012080
-4.3300977 1.3206356 -1.1314743 9209716
-4.1994381 1.3213491 -1.1367782 9012079
-1.5173053 1.2488673 -1.0591822 7172703
-1.306506 1.3103958 -1.0681137 7304292
-1.1126478 1.32008 -1.0760366 7304294
0.10358927 1.3256452 -1.1254014 6252120
0.2619901 1.3189633 -1.1317846 6054484
1.167064 1.2937183 -1.1683373 6055515
1.317881 1.2945421 -1.1744596 6252637
1.4788096 1.2853582 -1.1809297 5923672
1.7142402 1.3096449 -1.1906296 6120280
1.8010117 1.2066152 -1.1935091 5660755
15.138742 1.2200195 -1.0419537 9145458
15.312793 1.250789 -1.0426835 9342836
15.505696 1.2847549 -1.0434922 9277301
15.710043 1.29466 -1.0640353 9277301
15.908628 1.3011892 -1.1195215 9409399
16.095263 1.2959185 -1.1325922 9474679
16.296381 1.3034003 -1.1534325 9671031
16.476616 1.3038226 -1.1265996 9211509
16.708952 1.2966188 -1.0282204 8685937
16.904318 1.3009875 -1.0611403 8487787
17.096476 1.2883151 -1.119212 8751214
17.309744 1.2948697 -1.160306 8751213
17.508194 1.2924415 -1.1684421 8948595
17.69145 1.299273 -1.1836236 9145457
17.897392 1.2987384 -1.1793321 9013871
18.096443 1.3022851 -1.1925457 8948079
18.299545 1.2945911 -1.193915 9211251
18.506561 1.2996579 -1.1870385 9737593
18.708975 1.2975367 -1.1606894 9803899
18.897419 1.2903575 -1.1420187 9868921
19.088547 1.3016878 -1.1372306 9935229
19.289875 1.2931784 -1.1384382 9737851
19.504446 1.2877692 -1.1371999 9737852
19.70186 1.2907946 -1.1515005 9474422
19.873304 1.2884872 -1.1554512 9474165
20.106188 1.2994869 -1.1355174 9473907
20.305328 1.2941943 -1.1344137 9802872
20.508749 1.2867986 -1.1563435 9737336
20.707294 1.3031502 -1.1563131 9539700
20.897619 1.2801864 -1.1244069 9803129
21.097517 1.3029619 -1.1147431 9474423
21.302814 1.2940894 -1.0923389 9540216
21.509151 1.3032572 -1.0609709 9342835
21.712645 1.306578 -1.0786853 8422512
21.882662 1.3139114 -1.1265608 8620147
-8.1784468 1.4842819 -1.1696267 8224361
-7.6769066 1.4870213 -1.1899862 9145205
-7.5089746 1.4916639 -1.0277549 8750703
-7.3084064 1.4945769 -1.0117549 8619117
-7.0903754 1.4901732 -1.0205709 8618863
-6.9366584 1.4910131 -1.0268108 8881521
-6.7521973 1.4920206 -1.0342988 8947058
-6.4755068 1.4935318 -1.0455303 8684144
-6.3278675 1.4820306 -1.0514473 8881523
-6.0450988 1.4958829 -1.0630026 8552303
-5.9221244 1.4965545 -1.0679945 8487022
-5.676177 1.497898 -1.0779783 8749683
-5.4920673 1.5604419 -1.0858339 8749428
-5.3072553 1.4999129 -1.0929542 8684146
-5.0819793 1.5319127 -1.10229 9209976
-4.8973818 1.5089895 -1.1096349 9209975
-4.7540488 1.5337038 -1.1156015 8880750
-4.5079255 1.504279 -1.1254017 9275768
-4.3233476 1.4847746 -1.1327672 9144437
-1.0888118 1.4851694 -1.0780283 7238758
-0.94557875 1.4934988 -1.0838896 7238246
-0.79493397 1.5245104 -1.0901923 7172453
0.11013988 1.4992652 -1.126745 5989464
0.28353631 1.5077597 -1.1338307 6909286
0.41142935 1.5612882 -1.1393499 7303532
1.1718912 1.5050647 -1.1698452 6514786
1.3166262 1.5144806 -1.1757742 6121051
1.4674925 1.5066794 -1.1818448 6778215
1.7188538 1.5080523 -1.1920485 6055258
15.559925 1.4387063 -1.0437559 9277043
15.715121 1.4566555 -1.0444041 9408885
15.913086 1.4926338 -1.0521841 9540727
16.098648 1.5039032 -1.0549655 9343091
16.299067 1.5039455 -1.1090883 9408116
16.503065 1.5146542 -1.1124467 9145716
16.72023 1.4929464 -1.0340035 8619374
16.90925 1.502355 -1.0919499 8685168
17.116594 1.494866 -1.1433626 8817523
17.308268 1.4983333 -1.1923475 8948594
17.506653 1.4989603 -1.1806152 8948594
17.684145 1.4976093 -1.1948733 8948337
17.885201 1.4992272 -1.1953491 9210993
18.100445 1.5015931 -1.1958588 9343091
18.299009 1.5078143 -1.1963317 9013871
18.492638 1.5040922 -1.1967869 9737593
18.700403 1.506755 -1.1772125 9606520
18.90028 1.5020925 -1.1709925 9540215
19.089752 1.4973087 -1.1520076 9935229
19.292486 1.4973801 -1.1508938 9803386
19.494959 1.5022717 -1.1582007 9737853
19.695715 1.5069543 -1.1821122 10001281
19.825287 1.4949977 -1.1999301 9869696
20.030266 1.4064845 -1.1891546 9670773
20.300476 1.4212818 -1.1910229 9868920
20.914248 1.4691923 -1.1811267 10066301
21.139944 1.4878583 -1.1742197 9474422
21.296312 1.4827104 -1.1597097 9408629
21.529356 1.4993203 -1.1301202 9540214
21.710022 1.4996704 -1.0886942 8751218
21.884241 1.5095426 -1.1282568 8553839
-7.5220122 1.7031997 -1.0043864 8619118
-7.3068085 1.704375 -1.0131223 8750447
-7.0916047 1.7055507 -1.0218582 8421228
-6.9378872 1.7063903 -1.0280982 8355436
-6.7489586 1.6942354 -1.0356855 8881520
-5.9231772 1.6811634 -1.0690979 8880754
-5.6772299 1.682507 -1.0790818 8684146
-5.4927692 1.6835146 -1.0865697 9012085
-5.3083086 1.6845222 -1.0940576 8814705
-5.0931048 1.6856976 -1.1027935 9078131
-4.8778563 1.6791809 -1.1114833 9538425
-4.69344 1.6878806 -1.1190172 9670266
-4.5089788 1.6888881 -1.1265053 9604217
-1.0669211 1.6135904 -1.0797138 7501418
-0.90899384 1.6899245 -1.086593 7238246
-0.7248441 1.7362132 -1.0943494 6975330
-0.49471226 1.7736965 -1.1039162 6777696
0.10910661 1.6803912 -1.1278276 6514784
0.2900869 1.6813797 -1.1351743 6317661
0.47769371 1.6958218 -1.1428733 6777186
1.1648251 1.6861577 -1.170683 6251869
1.3156421 1.6869817 -1.1768051 6120795
1.4890385 1.6954758 -1.1838908 6909031
1.7077662 1.6891235 -1.1927229 6646628
1.8585831 1.6899471 -1.1988453 6251867
15.933365 1.6153177 -1.0453495 9540469
16.129883 1.6601084 -1.0461756 9606006
16.303856 1.7095517 -1.0666187 9277044
16.51832 1.6930536 -1.0858728 9014131
16.701927 1.7022986 -1.0860364 9014131
16.905615 1.7029097 -1.1252416 8685939
17.114571 1.6972982 -1.1679964 8883060
17.262173 1.7042072 -1.1939993 8883060
17.447554 1.6501496 -1.194405 9080181
17.682402 1.666116 -1.1949693 9211765
17.891609 1.6660732 -1.1954635 8816749
18.125864 1.6897087 -1.196031 9079661
18.306192 1.7074478 -1.1964675 9276783
18.500261 1.7150564 -1.1969306 9671540
18.696396 1.7056513 -1.1957022 10001022
18.908436 1.7015808 -1.1937916 9540216
19.095446 1.690827 -1.1911556 9803128
19.285511 1.6988583 -1.1911316 9868663
19.490749 1.6960313 -1.1916149 9868922
19.69742 1.6987 -1.1886522 9671801
19.813564 1.6311361 -1.1999836 9672061
20.861017 1.6043116 -1.1945415 10264196
21.169683 1.6219152 -1.1917896 9935229
21.529016 1.662885 -1.1405852 9277302
21.711788 1.6929153 -1.1019984 8422254
21.883623 1.7024776 -1.1488689 8619375
-7.646215 1.9179052 -1.0006819 8355691
-7.5009141 1.9242934 -1.0066148 8749935
-7.2895555 1.9136995 -1.0151217 8881265
-7.092833 1.9209279 -1.0231456 8881778
-6.9391155 1.9217674 -1.0293856 8486508
-6.7546544 1.9227751 -1.0368735 9012593
-5.8982306 1.9274529 -1.0716388 8618093
-5.6784587 1.897884 -1.0803691 8946545
-5.4939981 1.8988918 -1.0878569 9077361
-5.3092613 1.8515494 -1.0950559 9209204
-5.089891 1.892308 -1.1042066 9143410
-4.878778 1.840714 -1.1124488 9274995
-4.6943927 1.8549079 -1.1200155 9406579
-4.5100322 1.8734971 -1.1276087 9603958
-0.85715508 1.8562448 -1.0897284 7172197
-0.6689353 1.9101031 -1.0976967 6646365
-0.49553892 1.9185973 -1.1047823 6711903
-0.33489707 1.959726 -1.1115532 6646625
0.11343232 1.8835015 -1.1292641 5660754
0.28888142 1.8926932 -1.1364373 6120795
0.50002509 1.8938466 -1.1450083 6251868
0.69762897 1.9184058 -1.1531757 6580065
0.87663692 1.9713751 -1.1607652 6054746
1.119442 1.9134854 -1.1702536 6252124
1.3144366 1.8982949 -1.1780683 6054745
1.4954168 1.8992835 -1.1854149 6317660
1.7135609 1.8935084 -1.194227 6120794
1.857722 1.8408854 -1.1997471 5397837
16.3251 1.8747245 -1.0470393 9211507
16.52149 1.896232 -1.052773 9014131
16.692059 1.8989484 -1.0943731 8948338
16.889143 1.8982425 -1.1459298 8817009
17.093695 1.909637 -1.1918738 8685939
17.293606 1.923769 -1.1942041 9146232
18.311382 1.8939641 -1.196591 9276273
18.462545 1.8713866 -1.1969347 9737335
18.69512 1.8890486 -1.1974946 9540473
19.1064 1.9142953 -1.1984813 9737850
19.325645 1.8787291 -1.1989782 9737592
19.485867 1.8788481 -1.1993568 9803131
19.671843 1.8812023 -1.1997975 9474422
21.584209 1.8046854 -1.0455203 8225394
21.706308 1.8964053 -1.0825183 8027756
21.887058 1.8978114 -1.1475914 8356462
-7.6472678 2.1025143 -1.0017853 9276792
-7.4935513 2.103354 -1.0080253 8947570
-7.2783465 2.1045294 -1.0167612 8750192
-7.0938859 2.1055369 -1.024249 8683887
-6.9401689 2.1063764 -1.030489 9078644
-6.7557073 2.107384 -1.0379769 8881008
-6.0487843 2.1420145 -1.0668645 8880239
-5.8977184 2.1176651 -1.0728406 9077874
-5.6972051 2.1043746 -1.0808907 9406581
-5.5563626 2.052397 -1.0862808 9668986
-5.0644674 2.0550838 -1.1062479 9669497
-0.49657217 2.0997231 -1.105865 6777696
-0.33287725 2.1092427 -1.1125635 6515294
-0.11450258 2.10181 -1.1213746 6383452
0.1066956 2.103018 -1.1303537 5792339
0.28767595 2.1040068 -1.1377004 5923671
0.49881968 2.1051602 -1.1462713 6711907
0.71746117 2.1139016 -1.1551938 6448734
0.89094365 2.107302 -1.1621891 6580323
1.1020874 2.1084549 -1.1707603 6317661
1.3132311 2.1096087 -1.1793313 6711648
1.4942114 2.1105974 -1.1866779 6514781
1.7080659 2.117254 -1.1953932 6121051
16.353788 2.1814773 -1.0236788 8159341
16.535259 2.0944655 -1.0318692 8685424
16.698992 2.1014447 -1.0804567 8751473
16.895731 2.1028905 -1.1464273 8751216
17.06662 2.1081369 -1.187991 8882803
17.293306 2.0327048 -1.1942682 8554351
18.337301 2.0242331 -1.1967298 9144947
18.450651 2.069936 -1.1970248 8815982
18.688995 2.0535715 -1.1975783 9277303
19.124218 2.1130016 -1.1986418 9408886
19.29233 2.1062977 -1.1990352 9408630
19.474495 2.0897784 -1.1994555 9803646
19.644779 2.0627515 -1.199842 9737082
21.721853 2.0895486 -1.0672706 7961963
21.889414 2.1015158 -1.1355561 8159341
-7.8073025 2.3647375 -1.1901469 8553068
-7.6943483 2.2714872 -1.0009248 8684910
-7.4946041 2.2879627 -1.0091287 8553583
-7.2793994 2.2891386 -1.0178646 8553072
-7.0949388 2.2901461 -1.0253525 8618352
-6.9182076 2.2988036 -1.0325744 8815470
-6.7567611 2.2919934 -1.0390803 8946800
-6.4802456 2.3242726 -1.0504961 8485736
-6.3265285 2.3251123 -1.0567362 9012853
-6.1111488 2.2955196 -1.0652881 9472633
-5.8959446 2.296695 -1.074024 9274738
-5.6807404 2.2978706 -1.0827599 9405813
-0.29235664 2.2578194 -1.1151295 6712417
-0.10548141 2.2829909 -1.1228652 6843236
0.10566232 2.2841442 -1.1314363 5923157
0.28664267 2.2851326 -1.138783 5988950
0.49778631 2.2862861 -1.147354 6187103
0.70893008 2.2874393 -1.1559253 6449249
0.88991046 2.2884281 -1.1632717 6843496
1.1010541 2.2895811 -1.1718429 6383454
1.3121979 2.2907345 -1.1804138 6777183
1.4931781 2.291723 -1.1877606 5923668
1.6862583 2.2867398 -1.1955609 5989722
16.364374 2.3299608 -1.0237923 8159342
16.512011 2.3149819 -1.0324628 8159340
16.71394 2.2923226 -1.0695721 8751474
16.901611 2.3000574 -1.1229805 8882802
17.089911 2.3051398 -1.1785403 9079924
17.242386 2.3274693 -1.1912721 9145974
19.145172 2.2562473 -1.1987767 9672317
19.274027 2.2356095 -1.1990688 9277044
19.476366 2.2235224 -1.1995395 9408631
19.641758 2.2093883 -1.1999221 8882287
21.764294 2.2759819 -1.0506034 8159854
21.89101 2.2983422 -1.1056725 7830633
-7.8080187 2.4902236 -1.1908965 8684913
-7.6906581 2.5227888 -1.0026346 8816499
-7.4958324 2.50334 -1.010416 8421743
-7.2806287 2.5045156 -1.0191519 8487279
-7.096168 2.505523 -1.0266398 8355435
-6.9117069 2.506531 -1.0341277 8683886
-6.7052121 2.494472 -1.0424283 8946545
-6.488853 2.4857635 -1.0511496 8880496
-6.2966628 2.4791212 -1.0589036 9209717
-6.1122026 2.4801288 -1.0663915 9669496
-5.8969979 2.4813039 -1.0751274 9734775
-5.6895237 2.4901297 -1.0835972 9669243
-5.5180626 2.5243995 -1.0907644 9602938
-5.3336015 2.5254071 -1.0982523 9998206
-5.0943699 2.506201 -1.1078362 9735545
-4.913558 2.548214 -1.1154308 10327422
-0.087319806 2.4642217 -1.1247271 6777697
0.098527461 2.4773121 -1.1323463 6317659
0.28560936 2.4662585 -1.1398655 5922901
0.49675307 2.467412 -1.1484367 6317919
0.70782787 2.4806402 -1.1570799 6055257
0.88870496 2.4997416 -1.1645349 5595217
1.0998485 2.500895 -1.173106 5923414
1.3310437 2.5122204 -1.1825535 6646369
1.4919726 2.5030365 -1.1890236 6383711
1.6675156 2.4957621 -1.1960984 6055000
16.367853 2.5189121 -1.0239131 8291183
16.505974 2.5044513 -1.0546165 8356975
16.715191 2.4993289 -1.0895519 8619633
16.905386 2.4993975 -1.1124303 8882546
17.096132 2.4965105 -1.1472362 8948336
17.29236 2.5016184 -1.1547647 9079921
17.468992 2.5468614 -1.1678566 9277559
21.778814 2.4957449 -1.0463914 8028013
21.872046 2.4951923 -1.1024538 7962220
-7.712265 2.7175422 -1.0029674 8421485
-7.4970613 2.7187176 -1.0117034 8355694
-7.281857 2.719893 -1.0204393 8289642
-7.0973969 2.7209005 -1.0279272 8683886
-6.9129357 2.7219079 -1.0354151 8551788
-6.6888475 2.7055495 -1.0444025 8880752
-6.4823518 2.6934907 -1.052703 8880496
-6.2978911 2.6944983 -1.0601908 9538168
-6.1134315 2.6955061 -1.0676788 9603703
-5.8981514 2.6834953 -1.0763359 9800311
-5.6773853 2.689496 -1.0853274 9668214
-5.4985614 2.6988642 -1.0926386 9866107
-5.3084636 2.6915112 -1.1003032 9735033
-5.098897 2.7010477 -1.1088624 9932409
-4.8893299 2.7105837 -1.1174215 10195322
-4.6991735 2.6929743 -1.1250252 9866613
1.1459935 2.7210922 -1.1763446 6514526
1.3081423 2.707757 -1.1629446 6054743
1.4832693 2.7067621 -1.1899356 5988952
1.6265885 2.6999974 -1.1957064 6120538
16.352392 2.6881027 -1.0239773 8291182
16.500811 2.7100081 -1.0573308 8225133
16.689016 2.7022448 -1.1306434 8225132
16.902063 2.7038052 -1.1258982 8684909
17.095676 2.6941521 -1.1326662 8882544
17.292416 2.6926818 -1.1127757 9211506
17.49098 2.6985586 -1.1679858 9408885
21.783876 2.6978652 -1.0465598 8225392
21.897102 2.6897984 -1.1152122 8159598
22.040192 2.6957891 -1.1628875 8685942
-7.7133188 2.9021509 -1.0040709 8289386
-7.4981151 2.9033263 -1.0128068 8355181
-7.2829108 2.9045019 -1.0215427 8684143
-7.0984507 2.9055095 -1.0290306 8749679
-6.9139886 2.9065173 -1.0365186 8749423
-6.6987858 2.9076927 -1.0452545 8814960
-6.4835806 2.9088678 -1.0539902 9078132
-6.2991199 2.9098754 -1.0614783 9472375
-6.1146598 2.9108829 -1.0689663 9603704
-5.9916859 2.9115551 -1.073958 9142894
-5.4628277 2.9021358 -1.0953499 9997948
-5.2845855 2.915417 -1.1026617 10261633
-5.0939417 2.9103045 -1.1103626 9932408
-4.8925633 2.9098663 -1.1185277 9997941
-4.731204 2.9184399 -1.1251255 10392954
0.94662064 2.922698 -1.1695099 6580318
1.1058048 2.8988678 -1.1758184 6711648
1.3087965 2.8869407 -1.1839776 6186330
1.4595704 2.8953114 -1.1901449 5989208
1.6105595 2.8659472 -1.1960869 5726290
12.722386 2.9491017 -1.0008025 10064253
12.820428 2.9814975 -1.0000453 9932150
16.351744 2.9237428 -1.0241162 8028013
16.499697 2.9069953 -1.0657721 8159341
16.693441 2.9042826 -1.1494526 8159083
16.90571 2.8983836 -1.1462301 8487532
17.084999 2.9014163 -1.1102657 9211251
17.309427 2.9063728 -1.1438576 9474423
17.462763 2.8898473 -1.1679168 9408629
21.729567 2.9246926 -1.0701041 7962220
21.904284 2.8979161 -1.1274365 8225391
22.041212 2.8944237 -1.1630464 8225391
-7.8375211 3.1168566 -1.0003662 8224361
-7.7143717 3.08676 -1.0051743 8224105
-7.4991679 3.0879357 -1.0139102 8224106
-7.2839637 3.0891111 -1.0226462 8355948
-7.0995035 3.0901184 -1.0301341 8486765
-6.9150414 3.0911262 -1.037622 8881264
-6.7120652 3.0799272 -1.0457852 8814959
-6.4845891 3.0857852 -1.0550478 9144180
-6.3000727 3.0769029 -1.0624765 9340788
-6.1464558 3.0953245 -1.0688215 9340529
-5.9927387 3.096164 -1.0750618 9801594
-5.4393563 3.0991867 -1.0975252 9866617
-5.2918577 3.1122999 -1.1035891 10196095
-5.0928264 3.1066742 -1.111627 9998201
-4.9167175 3.1020412 -1.118741 10590591
0.94558734 3.1038237 -1.1705925 6579804
1.0964043 3.1046481 -1.1767147 6383194
1.307548 3.1058011 -1.1852858 6383452
1.4888728 3.0464144 -1.1922712 6252123
12.35288 3.162317 -1.0025996 10130040
12.536787 3.148773 -1.0014133 10196350
12.683931 3.1093583 -1.0005544 10524802
12.948877 3.1769121 -1.0524335 10260599
13.014854 3.176739 -1.0519934 10195063
16.362223 3.1107137 -1.0242522 8093291
16.497799 3.1039002 -1.0552571 8093290
16.691061 3.1041272 -1.1420975 8422254
16.891499 3.1116269 -1.1497546 8685168
17.099709 3.1119854 -1.0876622 9409142
17.309557 3.1119459 -1.1439097 9342579
17.456831 3.1114829 -1.1679479 9473907
21.753923 3.0800786 -1.0550033 7830377
21.904175 3.1000762 -1.102465 7962220
22.059887 3.0978909 -1.1632385 8159855
-7.8385739 3.3014657 -1.0014699 8421996
-7.7086315 3.278244 -1.0065961 8290410
-7.5003963 3.303313 -1.0151975 8487533
-7.285192 3.3044882 -1.0239335 8487278
-7.1007323 3.3054955 -1.0314213 8815472
-6.9162707 3.3065035 -1.0389093 8749678
-6.7808943 3.2887814 -1.0442899 8815472
-6.4548559 3.2628698 -1.0573533 9341043
-6.3012261 3.279094 -1.0636851 9670265
-6.116766 3.2801011 -1.0711731 9406578
-5.8093314 3.2817805 -1.0836529 9670008
-5.6864977 3.3070667 -1.0887921 9669753
-5.4917655 3.3040283 -1.0966712 9800825
-5.2999187 3.2933543 -1.1043864 9800825
-5.102232 3.2856433 -1.1123567 10063991
-4.9023118 3.2713504 -1.1203766 10788226
-4.7638783 3.2567217 -1.1259003 10196088
0.94472635 3.2547622 -1.1714945 7040358
1.0951988 3.3159616 -1.1779778 6712161
1.2460157 3.3167851 -1.1840998 6581086
11.776578 3.3760753 -1.0057764 9472368
11.910777 3.3612108 -1.0049266 10327932
12.093634 3.322376 -1.0038272 10327420
12.291269 3.2831652 -1.0041268 10064248
12.505893 3.2891564 -1.0116023 10327679
12.66971 3.2893035 -1.0144457 10393470
12.917728 3.3074534 -1.0522304 10064505
13.015155 3.292202 -1.0516276 10590849
16.360628 3.2899539 -1.0243552 7961961
16.507406 3.303102 -1.0493945 8027497
16.693954 3.3128932 -1.1056049 8356718
16.882624 3.3109624 -1.1353666 8488045
17.092142 3.3096337 -1.0824344 9342837
17.311714 3.2975769 -1.1454293 9342580
17.456944 3.3007302 -1.1679958 9408375
21.782225 3.304178 -1.0470372 7632999
21.912443 3.2992015 -1.0789933 8225649
22.085291 3.3166852 -1.1403821 8225392
22.229097 3.393863 -1.1637545 7962476
-7.8644676 3.5290158 -1.0018322 8618864
-7.7475719 3.5173466 -1.0065011 8618864
-7.5016255 3.5186899 -1.016485 8553072
-7.2864208 3.5198653 -1.0252209 8750451
-7.1019607 3.5208731 -1.0327088 8946802
-6.9175 3.5218806 -1.0401967 9144182
-6.7945251 3.5225523 -1.0451885 8749165
-6.4252529 3.4630311 -1.0597967 9407867
-5.8645797 3.5353241 -1.0829862 9670007
-5.6875858 3.4978294 -1.0899322 9933179
-5.523562 3.4884691 -1.0965269 10261886
-5.3262186 3.4767265 -1.1044581 10130302
-5.1029339 3.4087155 -1.1130922 10195577
-4.8882561 3.5021954 -1.1223798 10657151
0.94317633 3.5264509 -1.1731186 6842978
1.0914546 3.4915833 -1.1789162 6843235
1.2451546 3.4677234 -1.1850023 6646111
11.156696 3.5736217 -1.0092955 11250573
11.340302 3.5486495 -1.0081475 10328699
11.507511 3.5076094 -1.0101522 9867638
11.708416 3.5096338 -1.0079654 10196346
11.898408 3.4926686 -1.0202323 10393469
12.104362 3.4943662 -1.0397009 10459519
12.302209 3.4908898 -1.0427074 10130297
12.50388 3.4938393 -1.0544084 10327935
12.697305 3.4799283 -1.0549334 10196347
12.909058 3.4899743 -1.0774875 10064761
13.047017 3.5098178 -1.1057137 9998712
16.350334 3.4350805 -1.0244172 7501667
16.513784 3.5032566 -1.0475254 8487790
16.708921 3.5001671 -1.0808731 8619631
16.889473 3.5040519 -1.1342226 8685425
17.10416 3.495225 -1.0858186 9671801
17.317677 3.4865949 -1.1573668 9539703
17.457047 3.4641712 -1.1680373 9342579
21.765059 3.4220266 -1.047102 8159854
21.916124 3.5055242 -1.0650607 7962219
22.096336 3.5044987 -1.13271 8159598
-7.8561401 3.6859839 -1.0031445 8553071
-7.7178822 3.7021234 -1.0088525 8487278
-7.5333343 3.687747 -1.0162485 8749938
-7.2874737 3.7044744 -1.0263243 8552302
-7.1030135 3.7054825 -1.0338122 8749424
-6.9185529 3.7064896 -1.0413002 9144181
-6.795754 3.7379296 -1.0464759 9407094
-6.4266572 3.7091763 -1.0612679 9407094
-6.2425475 3.7717204 -1.0691233 9538421
-6.1192231 3.7108562 -1.0737476 9604214
-5.9224291 3.7057769 -1.0816982 9735800
-5.6974983 3.6955771 -1.090758 9867386
-5.5654898 3.6523421 -1.0958433 10130558
-4.8893094 3.6868048 -1.1234832 10657407
0.89512658 3.7240911 -1.1723969 7040101
1.0629306 3.6847563 -1.1789585 7106150
10.928429 3.6885068 -1.0104587 10000248
11.153968 3.6656508 -1.0090237 10526593
11.305596 3.6596253 -1.0147628 9868149
11.509055 3.6623523 -1.0201273 10197115
11.704764 3.6656446 -1.0268887 10196859
11.910828 3.6765387 -1.0539477 9801845
12.111151 3.677846 -1.0619509 10130811
12.305303 3.6767557 -1.0649774 9999483
12.499224 3.7037461 -1.092471 10130812
12.701057 3.7016354 -1.1074208 10262398
12.894306 3.6896358 -1.1152227 10393725
13.026674 3.6979685 -1.113894 10525825
16.371988 3.7098758 -1.0361493 8750703
16.510248 3.6795905 -1.0481743 8948083
16.703211 3.6939707 -1.0856551 8882291
16.889006 3.6956639 -1.133612 8948084
17.105183 3.6906965 -1.0949612 9606010
17.313545 3.6956639 -1.165331 9671801
17.491642 3.7652247 -1.1682565 10000767
21.948196 3.6977985 -1.0562251 8159341
22.088066 3.7063153 -1.1124063 8159598
-7.8417335 3.855293 -1.0047798 8684401
-7.718935 3.8867331 -1.0099559 8487021
-7.565218 3.8875725 -1.0161959 8552044
-7.288527 3.8890839 -1.0274278 8947058
-7.0963364 3.882441 -1.0351816 8552045
-6.9118762 3.8834488 -1.0426695 9078130
-6.7275906 3.9152248 -1.0503415 9143922
-6.4585414 3.9090018 -1.0612152 9407350
-6.2872195 3.9033444 -1.0681289 9538934
-6.120276 3.8954649 -1.0748513 9472885
-5.9561944 3.8758485 -1.0813845 9736057
0.759785 3.9480896 -1.1682982 6908255
0.88061082 3.918561 -1.1730154 6711389
1.0012642 3.91922 -1.1779131 6711646
12.420362 3.8069637 -1.0313277 10462087
12.928192 3.8166232 -1.1616826 10196857
13.046084 3.8163135 -1.1608961 10592131
16.344538 3.8045373 -1.0476048 9408117
16.52001 3.8111308 -1.0647156 9605751
16.712572 3.8053825 -1.0586873 9671032
16.880156 3.8188465 -1.1363745 9145461
17.110432 3.8253884 -1.1029096 9474678
17.319651 3.8513527 -1.1675646 9804156
17.457294 3.8684719 -1.1681399 9342836
22.123592 3.8385854 -1.1444083 7962221
-7.6583261 4.0409098 -1.0133715 8815474
-7.0432816 4.0135002 -1.038147 8551276
-6.8588209 4.0145078 -1.0456352 9538679
-6.6970387 4.0713348 -1.0525498 9472887
-6.4902511 4.0780592 -1.0609788 9407350
-6.3057895 4.0790668 -1.0684667 9670777
-6.1314597 4.0595059 -1.0754161 9802364
-5.9980044 4.0192094 -1.0805788 9473140
0.75857949 4.1594033 -1.1695614 8090479
0.89160842 4.1057901 -1.1746238 7368294
1.0004032 4.0701585 -1.1788154 7236708
-6.4910407 4.216516 -1.0618064 9538935
-6.367979 4.2018032 -1.0667067 9671035
-6.1836939 4.2335792 -1.074378 9934204
0.90870762 4.2809777 -1.1764051 7631209
0.92842418 4.4854388 -1.1784742 7631208
1.0822086 4.5355096 -1.1850226 7434596
1.239127 4.524291 -1.1913176 7697512
-6.6907301 4.72927 -1.0568907 9276020
-6.4939365 4.7241907 -1.064841 9210228
0.93646008 4.7037692 -1.1801555 7368547
1.0872769 4.7045932 -1.1862779 7763047
1.2384382 4.6450415 -1.1920395 8025707
-6.9051948 4.9578414 -1.0496111 9077615
-6.6854935 4.889298 -1.0580964 9078385
-6.4948144 4.8780317 -1.0657604 9275765
-6.3103538 4.8790393 -1.0732484 9604985
-6.0979762 4.8857937 -1.0819043 9736568
-5.8876748 4.88904 -1.0904541 9736310
-5.6956601 4.913166 -1.098392 9868153
-5.5113745 4.9449415 -1.1060638 9802358
0.946688 4.8907847 -1.1419435 7828073
1.0862435 4.8857193 -1.1873604 7762535
1.236716 4.9469185 -1.1938438 7828839
-8.1567154 5.1766458 -1.0002079 9405812
-6.8959713 5.1373787 -1.0510997 9406323
-6.674962 5.1008234 -1.0598369 9341044
-6.5015855 5.0849876 -1.0667707 9604216
-6.3115821 5.0944166 -1.0745357 9933179
-6.0963788 5.0955925 -1.0832715 9801846
-5.875536 5.0884061 -1.0921842 9999739
-5.7023511 5.1061358 -1.0993186 9933689
-5.5123229 5.1110902 -1.1070569 9933688
-5.2920709 5.125627 -1.1160804 10263165
-5.1310692 5.1070189 -1.1224953 10130809
0.93491125 5.0921583 -1.0750765 7894120
1.1030672 5.1092067 -1.1894304 7762790
1.235855 5.0978565 -1.1947455 7697510
-8.1574173 5.2997184 -1.0009438 9405553
-6.8784561 5.3005505 -1.0528233 9471858
-6.6817322 5.3077793 -1.0608472 9406065
-6.5148892 5.317481 -1.0676745 9537394
-6.3128109 5.3097939 -1.0758231 9801336
-6.0976071 5.3109689 -1.084559 10064505
-5.8747606 5.3198786 -1.0936528 9999740
-5.6979423 5.3131518 -1.1007828 9802104
-5.5135312 5.3229513 -1.1083232 10262398
-5.2982774 5.3153358 -1.1170065 10196860
-5.1006913 5.3252058 -1.1250819 9670257
-4.9297066 5.3788867 -1.1323504 9342063
0.92107177 5.2996979 -1.0530158 8025962
1.1064551 5.3084698 -1.190805 7763303
1.2346495 5.3091698 -1.196009 7698022
-8.0969849 5.484663 -1.0045432 8813163
-6.8672466 5.4913802 -1.0544628 9471603
-6.682786 5.4923878 -1.0619506 9537910
-6.4983249 5.4933949 -1.0694385 9735547
-6.3138638 5.4944024 -1.0769265 9933182
-6.09866 5.4955783 -1.0856624 9669492
-5.8834553 5.4967542 -1.0943983 9933691
-5.6989956 5.4977612 -1.1018862 9933947
-5.514535 5.4987693 -1.1093742 10393984
-5.2993302 5.4999442 -1.1181101 10328190
-5.0841265 5.5011201 -1.1268458 9801841
-4.8996654 5.5021267 -1.1343338 9670256
-4.7766914 5.5027995 -1.1393257 9538158
-0.21457073 5.5427628 -1.1386795 7895404
0.895464 5.5001531 -1.0491526 7960939
1.1129627 5.4896369 -1.1921935 7960682
1.2637796 5.4904609 -1.198316 7632229
-8.2211866 5.699369 -1.0008388 9141359
-8.0982609 5.7084312 -1.0058807 9602167
-7.9755902 5.7622485 -1.0111904 8747117
-6.8478622 5.686357 -1.0564594 9800570
-6.6734738 5.6565404 -1.0633473 9340791
-6.4993277 5.6692138 -1.0704895 9669756
-6.3071876 5.6713624 -1.0782959 9669755
-6.0997138 5.6801872 -1.0867658 9735287
-5.8844647 5.6736708 -1.0954558 9867643
-5.7000484 5.6823707 -1.1029897 10262399
-5.5155873 5.6833782 -1.1104776 10196349
-5.2832651 5.6778088 -1.1198659 10196348
-5.0851293 5.6769381 -1.1278969 10919551
-4.9313745 5.6711845 -1.1340973 11379843
-4.7777448 5.6874084 -1.1404291 11708805
-0.26248658 5.7169247 -1.1378169 8158063
-0.10091426 5.7124395 -1.1443425 7959914
0.02553086 5.7553945 -1.1497378 7894634
0.20633897 5.7865705 -1.1572647 7697512
0.74307287 5.7995172 -1.0000687 7566181
0.89472932 5.6954184 -1.0567297 7500644
1.1117573 5.7009506 -1.1934568 8092523
1.2324108 5.7016096 -1.1983545 7895142
-8.222415 5.9147458 -1.0021261 9535347
-8.0994415 5.9154181 -1.0071179 9469554
-7.9273491 5.9286661 -1.0141802 9667190
-7.7307305 5.9543548 -1.0223144 9272433
-6.5006075 5.8933821 -1.0718293 9734520
-6.2848759 5.8022523 -1.0800138 9800311
-6.0962744 5.847239 -1.0879425 10129533
-5.8651242 5.8763404 -1.0974984 9932922
-5.7008381 5.820827 -1.1038175 10130045
-5.4962029 5.878355 -1.1124743 10130044
-5.2705173 5.8385625 -1.121381 9801079
-5.0657954 5.8807063 -1.1299461 9866869
-4.8710284 5.8715134 -1.1377888 10459000
-4.7379823 5.9030094 -1.1433806 10655863
-4.5950394 5.9960976 -1.1497564 10195312
-4.3490915 5.9974408 -1.1597404 11642756
-0.69959593 5.9627533 -1.1216145 7829091
-0.51844341 5.9335546 -1.1287804 8223082
-0.30712748 5.9045205 -1.1371711 8026216
-0.095983759 5.905674 -1.1457422 7434335
0.024669796 5.9063325 -1.1506399 7368800
0.20582233 5.8771334 -1.1578064 7697769
0.74239677 5.9180317 -1.0007769 8026477
0.89280224 5.9002542 -1.0451342 7500901
1.1105517 5.9122639 -1.1947198 7697764
1.2312051 5.9129233 -1.1996177 7697765
2.3407185 5.986021 -1.0660267 9606268
2.5777259 5.9576864 -1.0754638 9079922
-8.1003189 6.0692592 -1.0080376 9536119
-7.9282618 6.0886598 -1.0151367 9864052
-7.7110772 6.1021538 -1.0240291 9930105
-6.5014839 6.0472221 -1.0727491 9537655
-5.8251281 6.0509167 -1.1002045 9997686
-5.0257988 6.0552831 -1.1326523 9735285
-4.8416886 6.1178269 -1.1405081 9471601
-4.7310128 6.1184311 -1.1450007 9603185
-4.5498896 6.1655741 -1.1526396 10853761
-4.3499694 6.1512814 -1.1606598 11577990
-0.69278705 6.0910931 -1.1226872 8157798
-0.54946786 6.0843282 -1.1284584 8289643
-0.30816075 6.0856462 -1.1382537 8026986
-0.097017042 6.0867996 -1.1468248 7632228
0.053886011 6.0725298 -1.1528568 7172703
0.7413826 6.0958037 -1.0018396 7960685
0.90579695 6.0901074 -1.0573037 7960941
1.1095185 6.0933895 -1.1958023 8026987
2.1620753 6.1628222 -1.0598783 7958620
2.3403804 6.0452785 -1.0663805 9672574
2.5772188 6.0465722 -1.0759945 8751467
-7.7939372 6.255547 -1.0216208 9600886
-7.1181087 6.3515463 -1.0496283 9601651
-4.8425665 6.271668 -1.1414275 10063225
-4.5555692 6.2629795 -1.1530142 10590592
-4.3508468 6.3051224 -1.1615791 9603443
-0.73130929 6.2342777 -1.1220138 8749681
-0.48040691 6.3161521 -1.1326985 7895398
-0.29638988 6.2884059 -1.13999 7961451
-0.098222554 6.2981129 -1.1480879 7763560
0.022431001 6.2987719 -1.1529856 7172448
0.75210899 6.2914166 -1.0034893 7763818
0.9169414 6.309813 -1.0699712 7763560
1.0913644 6.2985539 -1.1247213 7895400
1.7464247 6.3679585 -1.0442934 8750961
2.1314561 6.3404326 -1.0597395 8617831
2.5758665 6.2836013 -1.0774117 8553833
-7.1189866 6.5053873 -1.0505476 9338481
-6.9345255 6.5063944 -1.0580356 9930878
-4.3517246 6.4589634 -1.1624985 10723211
-0.44925445 6.4954405 -1.1350753 7698789
-0.26317215 6.5085325 -1.142704 7567720
-0.099428035 6.5094266 -1.1493509 8158319
0.021225512 6.5100856 -1.1542486 7632744
0.73935431 6.4513469 -1.0039644 7107422
0.91664505 6.5115738 -1.0115296 7040859
1.0646691 6.5123825 -1.0175385 7698018
1.7455794 6.5161018 -1.045179 8619372
1.9033593 6.5367165 -1.0517064 9144687
2.1008372 6.5180426 -1.0596002 9078121
2.3022177 6.5072908 -1.0677013 9276526
2.5628753 6.4850106 -1.0781353 9013871
-6.8866348 6.7343473 -1.0613934 9798775
-6.700171 6.7435708 -1.0690135 9733752
-0.82438266 6.6865978 -1.121047 9342585
-0.70372915 6.6872568 -1.1259451 9670524
-0.46224976 6.6583881 -1.1355599 8290157
-0.28126943 6.6593761 -1.1429063 7830376
-0.10028913 6.6603646 -1.1502532 7698792
0.020364434 6.6610241 -1.1551509 7632999
20.160524 -3.6220093 -0.92258263 9671544
20.321621 -3.638082 -0.96517146 9934715
20.488632 -3.6417503 -0.97611839 9474164
20.640999 -3.6358891 -0.97648174 9342840
20.971834 -3.6144321 -0.8224532 8554866
21.138851 -3.6193638 -0.82272708 7830631
21.31535 -3.6375875 -0.87117934 8094057
21.481255 -3.6660635 -0.95229346 8619888
21.675154 -3.6781428 -0.97872049 8685681
21.851412 -3.6944599 -0.98546916 8685166
22.034843 -3.7296741 -0.98574662 8618604
16.976147 -3.4671531 -0.81274062 9408118
17.112206 -3.4703801 -0.82193148 9671032
17.289093 -3.4996076 -0.86077434 9341812
17.501368 -3.504627 -0.8335824 9802362
17.622555 -3.4938877 -0.8142519 9802619
19.507866 -3.5520599 -0.81867146 9802616
19.713776 -3.5409312 -0.81916451 9211250
19.92827 -3.5139372 -0.82660007 9474420
20.110411 -3.5100632 -0.87273788 9474420
20.303907 -3.5102942 -0.92115027 9473906
20.502232 -3.5097325 -0.94984317 9473652
20.692368 -3.4842112 -0.97439915 9408884
20.920618 -3.4677453 -0.88302594 8685423
21.115807 -3.4856596 -0.82763255 8159851
21.297075 -3.4917712 -0.87619877 8028007
21.486731 -3.4965065 -0.95283443 8488559
21.682011 -3.4958842 -0.9838587 8487531
21.820894 -3.5035901 -0.98556966 8816495
16.937881 -3.2739906 -0.81276512 9736822
17.102879 -3.2897303 -0.83487147 9868667
17.294111 -3.2896726 -0.86429095 9605240
17.493788 -3.2941751 -0.82207072 9539190
17.621815 -3.2245817 -0.81441045 9999998
19.998472 -3.3764501 -0.81993508 9408625
20.12524 -3.3484983 -0.82341957 9408628
20.30341 -3.301085 -0.84988755 9539701
20.500051 -3.2993817 -0.89315498 9605750
20.694975 -3.291934 -0.92856532 9605750
20.910812 -3.3085022 -0.93038338 9079407
21.105011 -3.2992599 -0.89540553 8750702
21.277651 -3.2940276 -0.89760673 8356717
21.490644 -3.2956939 -0.95114791 8290668
21.677439 -3.3066895 -0.98548692 8619375
21.833843 -3.3635542 -0.98570228 8816498
16.765959 -3.0757239 -0.81247711 9868151
16.918921 -3.0943608 -0.81802684 9604980
17.100525 -3.100225 -0.84984696 9605237
17.292692 -3.0971153 -0.86859554 9539446
17.500565 -3.0942521 -0.85282528 9473397
17.684528 -3.0759349 -0.81738079 9670520
17.843 -3.0194855 -0.83434772 9801336
20.34634 -3.1418276 -0.82089669 9342582
20.509909 -3.1056347 -0.83397794 9408117
20.705095 -3.0904922 -0.86315644 9605496
20.915432 -3.1044335 -0.90033656 9407345
21.116199 -3.0955684 -0.88288003 8685166
21.286924 -3.0997753 -0.93698257 8619631
21.490211 -3.0944741 -0.96007478 8422254
21.633255 -3.1474342 -0.9855395 8290667
16.772259 -2.8987739 -0.81259739 9604979
16.920511 -2.907335 -0.82119495 9933944
17.100075 -2.902262 -0.86459088 9736566
17.294493 -2.9044104 -0.89095473 9342323
17.508783 -2.8958042 -0.87663388 9604727
17.71357 -2.8925471 -0.83082479 9801850
17.843147 -2.8984966 -0.82957959 9801338
20.728458 -2.9540262 -0.82191128 9144431
20.921137 -2.8985665 -0.83431298 8684396
21.09972 -2.9005864 -0.87604177 8553581
21.305288 -2.8949151 -0.93538797 8422509
21.491991 -2.8942249 -0.97455418 8553581
21.645515 -2.8059072 -0.97934961 9408885
16.73666 -2.6923919 -0.81302124 9672056
16.910168 -2.6917822 -0.83472264 9671288
17.089939 -2.6879754 -0.8515206 9933689
17.289852 -2.694839 -0.87430227 9802105
17.499935 -2.7017143 -0.87399626 9670263
17.710754 -2.6921186 -0.85312915 9736056
17.889467 -2.6962435 -0.8360768 9736569
18.023527 -2.6628375 -0.80478537 9869693
20.970985 -2.7139304 -0.83247775 8027753
21.086733 -2.7161405 -0.87713748 8487790
21.303085 -2.701395 -0.91952783 8619376
21.498472 -2.7008541 -0.96014589 8685424
21.688452 -2.6818273 -0.98024863 9211249
21.857218 -2.609405 -0.97996664 9606519
16.360815 -2.4324412 -0.82834703 9472884
16.516699 -2.4985294 -0.83086175 10131329
16.719431 -2.4878614 -0.82673627 9539960
16.904772 -2.4957812 -0.83912176 9539446
17.094137 -2.4933074 -0.84585899 9538932
17.292292 -2.4903035 -0.86423784 9538677
17.49563 -2.490051 -0.87623006 9604726
17.713587 -2.4919419 -0.869798 9736311
17.890516 -2.4904644 -0.85362768 9868408
18.103821 -2.4859486 -0.82975471 9539957
18.252134 -2.4619825 -0.81293041 9539960
20.957987 -2.4885402 -0.82332176 7830888
21.109442 -2.4967492 -0.85821736 8421996
21.300871 -2.5069926 -0.90572894 8553324
21.491386 -2.5080173 -0.93243957 8816496
21.697769 -2.4986918 -0.94607347 9407859
21.879232 -2.4907618 -0.98008931 9342323
15.268394 -2.2798464 -0.82385397 10329214
15.511665 -2.2791462 -0.82486326 10132093
15.633169 -2.3008513 -0.82536179 10395264
15.979527 -2.2318013 -0.82681608 10328446
16.173466 -2.2319212 -0.82762051 10328964
16.311218 -2.3060098 -0.82817304 9801849
16.535103 -2.3021333 -0.84034503 9408120
16.703436 -2.3050251 -0.83701485 9408631
16.899935 -2.3014681 -0.85116285 9408118
17.097698 -2.2987416 -0.86179525 9539447
17.30102 -2.2951365 -0.87209702 9473653
17.503822 -2.2944105 -0.87740624 9671032
17.698805 -2.2970095 -0.89047182 9802617
17.891951 -2.299731 -0.88990128 9802360
18.094658 -2.2951303 -0.88825965 9737594
18.287182 -2.2939446 -0.855165 9672058
18.461435 -2.2365768 -0.81877643 9145459
20.952913 -2.2525845 -0.82285947 9670777
21.111454 -2.2952912 -0.84695798 8619118
21.307053 -2.2955353 -0.88644654 8487789
21.499252 -2.3004491 -0.90654474 8948337
21.709829 -2.3037949 -0.93068707 9671542
21.900635 -2.2947736 -0.97386009 9210735
15.139271 -2.0050192 -0.82338738 9606262
15.31999 -2.0841434 -0.82411718 10198144
15.511321 -2.099854 -0.82490677 9868923
15.698911 -2.0946794 -0.82568622 9934457
15.900912 -2.0958214 -0.83346766 9999481
16.100805 -2.1039419 -0.84764844 9802103
16.303654 -2.1183686 -0.85686976 9802106
16.528492 -2.0974176 -0.86225212 9342326
16.698532 -2.1052747 -0.85454917 9408374
16.900167 -2.1013033 -0.87744379 9473910
17.101347 -2.1045535 -0.89557308 9605239
17.30588 -2.0991058 -0.90941602 9539704
17.498207 -2.0985341 -0.92100543 9342326
17.696388 -2.100621 -0.93449509 9342068
17.897358 -2.1020038 -0.9258427 9605238
18.093302 -2.0947545 -0.9057861 9605751
18.297247 -2.0968413 -0.90396118 9737593
18.488819 -2.1035495 -0.83261687 9737850
18.658714 -2.0269232 -0.83074367 9606005
20.755198 -2.0436676 -0.82251668 9341298
20.908472 -2.0962951 -0.84065866 9473140
21.106152 -2.0962198 -0.85171306 8618862
21.301992 -2.09676 -0.89158231 8356461
21.502264 -2.0948815 -0.89912748 9013874
21.70594 -2.0959899 -0.92093766 9408115
21.888126 -2.1026988 -0.96016389 9539700
22.018951 -2.0538557 -0.98067951 8684391
14.266848 -1.832649 -0.81205899 8816744
14.406537 -1.819827 -0.81060028 8553063
14.920578 -1.8278141 -0.80974895 9144690
15.119245 -1.866948 -0.82137251 9540213
15.296298 -1.8894688 -0.8352257 9934456
15.511727 -1.8947129 -0.83228964 9671030
15.708367 -1.9011788 -0.85069466 9671029
15.907405 -1.9100206 -0.8749727 9802359
16.107111 -1.9017565 -0.89815474 9868152
16.309219 -1.9088433 -0.91822743 9670776
16.529209 -1.900291 -0.89904511 9473911
16.70525 -1.9009169 -0.88296252 9539960
16.905075 -1.8982934 -0.89765412 9408373
17.103041 -1.8964857 -0.92320335 9408117
17.301155 -1.8962386 -0.94577914 9539701
17.484941 -1.9004108 -0.96278161 9539959
17.697134 -1.9018291 -0.95806456 8618604
17.891035 -1.91248 -0.94103789 8289898
18.092072 -1.9078776 -0.86565667 9737081
18.298958 -1.89832 -0.91234004 9803388
18.500719 -1.9030514 -0.90921831 9672058
18.695757 -1.9101137 -0.86558336 9803386
18.828335 -1.8576853 -0.84114969 9737595
20.577168 -1.8255432 -0.82222593 9472884
20.731041 -1.8992245 -0.84947646 9275251
20.903582 -1.9090776 -0.87233371 9143920
21.105379 -1.9004387 -0.85933197 8487275
21.301474 -1.9026912 -0.9072516 8421740
21.488071 -1.9002131 -0.91473114 8882033
21.696022 -1.8981919 -0.94580716 9144946
21.880655 -1.9091542 -0.97290027 9210995
22.018547 -1.9069176 -0.98076618 9869438
14.165955 -1.6692461 -0.89328474 8882284
14.29658 -1.6888031 -0.87561762 9408371
14.492856 -1.6739894 -0.84553552 9342836
14.709127 -1.6693133 -0.83209223 9144948
14.905851 -1.6847898 -0.84345424 9605497
15.095238 -1.695721 -0.85278118 9605495
15.291197 -1.6937233 -0.85870659 9737079
15.48899 -1.6895573 -0.8629387 9934458
15.708231 -1.7033848 -0.87859613 10131836
15.891092 -1.7032712 -0.90555739 9868151
16.100073 -1.6983249 -0.93533069 9868408
16.300478 -1.694129 -0.95755655 9802618
16.518007 -1.7003218 -0.92191893 9145203
16.706741 -1.697137 -0.90185982 9277045
16.908257 -1.6982541 -0.92121673 9408374
17.106688 -1.7036729 -0.94501293 9474424
17.280563 -1.7131864 -0.96460682 9539960
17.490183 -1.6868448 -0.96330303 9540217
17.696405 -1.7013012 -0.93907845 8356206
17.899069 -1.6995568 -0.9393124 8158827
18.090021 -1.7140865 -0.89961815 9671289
18.285587 -1.7004519 -0.84603518 9868666
18.508968 -1.697103 -0.90082455 9605750
18.708355 -1.7068186 -0.94756734 9803386
18.898153 -1.69041 -0.87463939 9343091
19.083836 -1.6653107 -0.84093952 9474679
19.271513 -1.6250385 -0.8199659 9210996
20.358067 -1.6487203 -0.82181376 9669754
20.503033 -1.6814823 -0.84542829 9143409
20.701708 -1.6924367 -0.87227964 9078130
20.915983 -1.7057043 -0.86665481 8486764
21.100491 -1.7063973 -0.86179847 8421740
21.299416 -1.7029752 -0.92062169 8487532
21.487766 -1.6937668 -0.95250964 8750448
21.704563 -1.7084308 -0.9698813 9145459
21.871073 -1.7114049 -0.98053414 9408886
13.976004 -1.4224817 -0.81870842 9276786
14.134667 -1.5130708 -0.94375181 8882030
14.30151 -1.5086788 -0.91971612 9211249
14.496481 -1.4867131 -0.91248691 9408371
14.699961 -1.49682 -0.89401829 9539701
14.895915 -1.5020906 -0.90540016 9539701
15.101087 -1.4955878 -0.9086073 9737336
15.296069 -1.498649 -0.89978176 9473909
15.498902 -1.5023175 -0.86898977 9605239
15.69063 -1.4839033 -0.91450256 9737335
15.886668 -1.4974359 -0.9473477 9868665
16.093828 -1.4977665 -0.97031718 9934458
16.2978 -1.4850876 -0.98688656 9736565
16.505701 -1.4980581 -0.9284817 9210995
16.69557 -1.5016903 -0.91092229 9276787
16.902861 -1.5081565 -0.92502809 9013873
17.102873 -1.5147885 -0.94907176 9343092
17.296331 -1.5014818 -0.96833694 9540471
17.496084 -1.497537 -0.96889907 9672058
17.693823 -1.5194252 -0.94218975 9014132
17.897738 -1.5122669 -0.9349488 8816754
18.085342 -1.4984372 -0.87728333 9869178
18.29059 -1.4953185 -0.84903747 9934457
18.47048 -1.4925857 -0.8224864 9737080
18.730972 -1.5351586 -0.96567315 9540471
18.904728 -1.4964236 -0.9302994 9606264
19.103491 -1.4879482 -0.87124437 9474421
19.287617 -1.4880283 -0.82214338 9342580
20.183199 -1.4274193 -0.82153225 9866872
20.319307 -1.4876058 -0.84888858 9471860
20.48773 -1.4938471 -0.87992197 9669237
20.700209 -1.4946523 -0.89557195 9274993
20.923765 -1.5015545 -0.8606205 8552813
21.100185 -1.5087639 -0.8878563 8421740
21.30858 -1.5006109 -0.92861998 8224361
21.489775 -1.5023143 -0.97335243 8684912
21.715782 -1.5257094 -0.98027802 9277043
21.846098 -1.5359626 -0.98057961 9342837
-8.4891281 -1.2251511 -0.94697952 9145201
-8.3046675 -1.2241436 -0.95446777 8619116
-8.0587196 -1.2228001 -0.96445179 9211765
-3.4638038 -1.2372292 -0.96479702 7631200
-3.312815 -1.2665931 -0.97073907 7829349
-3.1078067 -1.2473601 -0.97917348 7237214
-2.8906994 -1.2340989 -0.9880619 7369056
13.757928 -1.2526498 -0.81784654 9869436
13.921277 -1.2945602 -0.81851351 9671800
14.092455 -1.3006437 -0.82232648 9737590
14.312999 -1.3076882 -0.83898759 9803124
14.520718 -1.3195169 -0.88782322 9605491
14.697399 -1.3181869 -0.8862735 9737334
14.893512 -1.3010292 -0.88778335 9737333
15.103194 -1.3182027 -0.935368 9539957
15.303797 -1.3207664 -0.94699919 9605495
15.501498 -1.3062329 -0.94173163 9671290
15.690709 -1.2967954 -0.90986758 9802618
15.887033 -1.2790325 -0.94812661 9671287
16.092785 -1.2943213 -0.98752165 10000251
16.279627 -1.3106136 -0.98990989 9736821
16.501677 -1.3176606 -0.92030567 9145202
16.691227 -1.3152074 -0.90837276 9277299
16.901199 -1.29249 -0.91625684 9408627
17.097017 -1.2954532 -0.95065582 9671800
17.297558 -1.3043157 -0.96997148 9737594
17.494932 -1.3054018 -0.97043705 9803646
17.703907 -1.3046061 -0.95148879 9737595
17.906105 -1.3018212 -0.92240798 9803387
18.092213 -1.2994803 -0.89243734 9672058
18.294287 -1.3009589 -0.86783832 9935229
18.510513 -1.2905724 -0.82780063 10066558
18.698883 -1.2794082 -0.84818047 9539960
18.909782 -1.3356673 -0.97974104 9671802
19.102148 -1.3032327 -0.94547272 9671541
19.293945 -1.2986685 -0.88373584 9474165
19.486546 -1.2547271 -0.83401299 9671800
19.624554 -1.2320168 -0.80790985 9145200
19.992491 -1.2061617 -0.82121372 9735026
20.146294 -1.2787293 -0.82686979 9407351
20.29435 -1.3065884 -0.88630486 9801851
20.491877 -1.3055853 -0.90750587 9867128
20.694622 -1.3100579 -0.91328663 9538679
20.920834 -1.3031678 -0.89370286 8749934
21.101425 -1.2984256 -0.89077449 8355948
21.290844 -1.2939334 -0.94346184 8290155
21.48505 -1.2951379 -0.97957355 8224876
21.64805 -1.2407205 -0.9870742 8225134
-8.5100908 -1.1432146 -0.94663811 9013615
-8.0592461 -1.1304955 -0.96500301 9014130
-3.9172878 -1.0585747 -0.94751358 8880491
-3.6757057 -1.1055567 -0.95702016 8486245
-3.5094795 -1.1620072 -0.96341181 7499097
-3.0700026 -1.1021438 -0.91650069 8355436
-2.8913884 -1.1133482 -0.98878342 7697508
-2.7255759 -1.0973482 -0.99560809 7235930
13.766106 -1.0991195 -0.8179189 9408629
13.913461 -1.0963587 -0.81853092 9869178
14.08696 -1.1004243 -0.83598256 9869690
14.293069 -1.1011297 -0.84817505 9474419
14.506732 -1.0992336 -0.86820894 9671539
14.699052 -1.0979093 -0.87607658 9605489
14.896035 -1.0993255 -0.89782089 9737332
15.097275 -1.0988672 -0.93853378 9540468
15.293792 -1.0972356 -0.95637047 10066554
15.500004 -1.1118519 -0.9807936 9737080
15.695714 -1.0986115 -0.96275038 9671033
15.885347 -1.0930295 -0.90280157 9605240
16.043262 -1.0784979 -0.9276371 9868155
16.244167 -1.1517028 -0.9898026 9408371
16.5247 -1.0987643 -0.82575798 8948339
16.701096 -1.0997841 -0.882137 8948337
16.9046 -1.0948786 -0.91220194 9079664
17.097187 -1.0998628 -0.94951618 9342579
17.267145 -1.1127489 -0.97001374 9474680
17.501316 -1.1089702 -0.97056919 9737596
17.713297 -1.1047398 -0.9597643 9540213
17.896385 -1.0963588 -0.94512391 9737850
18.102852 -1.0884647 -0.9000209 9408884
18.296495 -1.1070049 -0.88441473 9540473
18.504105 -1.1103315 -0.86844754 9474167
18.699768 -1.0971273 -0.8259052 9736826
18.819828 -1.0668178 -0.81852603 9604980
19.149675 -1.1387284 -0.98904008 9672056
19.312691 -1.1280572 -0.94126815 9737595
19.497694 -1.0991675 -0.89294028 10066559
19.683174 -1.0836087 -0.85195529 9540214
19.916126 -1.0579989 -0.82886362 9868410
20.101139 -1.0981234 -0.84677219 9143920
20.296804 -1.1016554 -0.91936016 9538935
20.492878 -1.0991706 -0.91099477 9801850
20.694033 -1.0942308 -0.92190075 9867385
20.898758 -1.1085315 -0.93964511 9275505
21.100916 -1.0973114 -0.90618646 8355947
21.288307 -1.1010811 -0.95745176 8224876
21.504662 -1.1011016 -0.98641086 8159084
21.644325 -1.097397 -0.98718148 7961705
-4.0918036 -0.87084907 -0.94160056 8289126
-3.9264965 -0.95512116 -0.9477821 8551527
-3.756876 -0.9771955 -0.9545247 8881002
-3.0276537 -0.95686156 -0.8051818 8553581
-2.8836677 -0.9334541 -0.85095531 7696986
-2.7250497 -0.91803634 -0.91716647 7237208
13.752236 -0.8750031 -0.81791776 9211249
13.905444 -0.88261914 -0.82294911 9408884
14.103874 -0.89484084 -0.84508133 9540981
14.306926 -0.89912528 -0.86442769 9540470
14.503364 -0.90075886 -0.88726521 9672054
14.698198 -0.90576768 -0.91649884 9540213
14.896661 -0.90001678 -0.93496078 9605751
15.090385 -0.89012027 -0.96675432 9737849
15.292716 -0.88654059 -0.97997838 9935225
15.483222 -0.89567667 -0.98671037 9802871
15.683937 -0.91559422 -0.98205113 9868667
15.896674 -0.90939659 -0.93602073 9604471
16.076281 -0.88891298 -0.8762418 9933178
16.279139 -0.85311389 -0.81006545 8947567
16.508083 -0.89812249 -0.8291238 9144945
16.706551 -0.89560175 -0.8769086 9276789
16.906815 -0.89318615 -0.89003122 9079665
17.094498 -0.90537483 -0.95339495 9210736
17.240437 -0.96497595 -0.97003853 9540212
17.565672 -0.91859871 -0.97083467 9474679
17.730673 -0.90310442 -0.95615578 9671798
17.888765 -0.90452987 -0.96281081 9606264
18.100483 -0.89636189 -0.91933918 9540471
18.297955 -0.89986056 -0.90891576 9474165
18.502014 -0.90315503 -0.87349159 9276788
18.697947 -0.9025197 -0.84621727 9276532
18.848925 -0.89459175 -0.81869733 9276788
19.508375 -0.93973792 -0.97191608 9934974
19.71612 -0.91184092 -0.94799566 9999992
19.907852 -0.89477009 -0.87179667 9670774
20.09573 -0.88689578 -0.8651228 9407603
20.292894 -0.88674057 -0.91127968 9670261
20.494585 -0.88400644 -0.90391523 9801847
20.696463 -0.87814665 -0.90671486 9801590
20.881262 -0.88367784 -0.92180258 9341811
21.101547 -0.89950508 -0.86066735 8553582
21.301804 -0.8908146 -0.92507046 8093291
21.496264 -0.89036721 -0.9555192 8159083
21.669079 -0.89402747 -0.93901068 8619375
21.945829 -0.83062822 -0.82562494 9605751
22.109512 -0.8148129 -0.80709344 9277044
-8.8613834 -0.64257079 -0.93549824 9211765
-4.2209883 -0.69797039 -0.9374342 8486762
-4.1603174 -0.75801617 -0.93952179 8947310
-2.6932592 -0.75750476 -0.81998253 6507299
-2.5477273 -0.66584599 -0.82645434 6308376
13.356454 -0.67278713 -0.81632674 9803125
13.522023 -0.67260188 -0.82389718 9868920
13.702619 -0.69122934 -0.82551879 10066558
13.9054 -0.69932741 -0.85000974 9672055
14.114021 -0.70154542 -0.86637127 9803640
14.304606 -0.70690131 -0.90593934 9803384
14.500263 -0.70292234 -0.92208719 9803640
14.693522 -0.69995141 -0.9408716 9408629
14.892799 -0.69474018 -0.95904911 9671799
15.07646 -0.69164735 -0.98507446 9934971
15.288021 -0.73957312 -0.98594004 9671798
15.477766 -0.73456216 -0.98672819 9737591
15.652748 -0.75967038 -0.98744774 9934970
15.965527 -0.73193163 -0.97903597 9275765
16.10887 -0.70771414 -0.91716933 9538164
16.296881 -0.68923205 -0.84095383 9341298
16.503851 -0.69440597 -0.83926821 9277042
16.708609 -0.70067513 -0.88967746 9409139
16.914669 -0.70380962 -0.91304815 8948589
17.086451 -0.71956336 -0.96671677 9145455
17.574564 -0.75997305 -0.97095013 9474163
17.705051 -0.71565729 -0.97128475 9408371
17.890638 -0.70668542 -0.97172856 9606008
18.101236 -0.70604926 -0.93754739 9671801
18.299492 -0.70272642 -0.90958118 9671541
18.499458 -0.695849 -0.88017625 9539957
18.706017 -0.6954481 -0.838489 9672056
18.882189 -0.70228821 -0.81889051 9210737
19.547314 -0.62124753 -0.82051015 10328707
19.752325 -0.69680589 -0.9096964 9802359
19.900644 -0.70047259 -0.89154953 9802360
20.101873 -0.69481665 -0.90824425 9671031
20.301973 -0.69883603 -0.90089518 9933945
20.492355 -0.7006253 -0.90348226 9868152
20.692932 -0.69768655 -0.91052192 9934202
20.880371 -0.70846099 -0.90819967 9407859
21.098804 -0.70545644 -0.8628931 8487790
21.297707 -0.69999605 -0.89804471 8750962
21.48728 -0.70395023 -0.90538263 8816497
21.699432 -0.69958496 -0.84897041 9605496
21.903788 -0.68249422 -0.84240198 9868924
22.097189 -0.67374867 -0.8403244 9671802
